0.0,0.0,38.03921568627451,38.03921568627451,38.03921568627451,38.03921568627451,38.03921568627451,38.03921568627451,38.03921568627451,0.0,0.0,0.0,0.0,0.0,0.0,0.0,43.13725490196078,0.0,45.09803921568627,0.0,43.13725490196078,43.13725490196078,43.13725490196078,0.0,0.0,0.0,0.0,45.09803921568627,45.09803921568627,45.09803921568627,45.09803921568627,0.0,0.0,45.09803921568627,0.0,0.0,1.9607843137254901,1.9607843137254901,0.0,1.9607843137254901,1.9607843137254901,1.9607843137254901,0.0,8.03921568627451,8.03921568627451,8.03921568627451,8.03921568627451,8.03921568627451,8.03921568627451,8.03921568627451,8.03921568627451,8.03921568627451,11.76470588235294,11.76470588235294,11.76470588235294,11.76470588235294,11.76470588235294,11.76470588235294,11.76470588235294,11.76470588235294,11.76470588235294,11.76470588235294,11.76470588235294,11.76470588235294,11.76470588235294,11.76470588235294,11.76470588235294,11.76470588235294,11.76470588235294,11.76470588235294,0.0,9.803921568627452,9.803921568627452,9.803921568627452,14.705882352941176,0.0,41.372549019607845,41.372549019607845,41.372549019607845,41.372549019607845,41.372549019607845,41.372549019607845,14.705882352941176,14.705882352941176,0.0,0.0,0.0,0.0,0.0,0.0,0.0,26.07843137254902,26.07843137254902,26.07843137254902,0.0,0.0,0.0,0.0,0.0,0.0,0.0,0.0,0.0,0.0,0.0,0.0,0.0,0.0,0.0,8.03921568627451,8.03921568627451,8.03921568627451,8.03921568627451,8.03921568627451,8.03921568627451,8.03921568627451,8.03921568627451,8.03921568627451,8.03921568627451,0.0,15.882352941176471,0.0,15.882352941176471,0.0,0.0,8.03921568627451,0.0,0.0,8.03921568627451,8.03921568627451,8.03921568627451,8.03921568627451,8.03921568627451,0.0,11.76470588235294,11.76470588235294,11.76470588235294,11.76470588235294,11.76470588235294,15.882352941176471,15.882352941176471,15.882352941176471,15.882352941176471,15.882352941176471,15.882352941176471,15.882352941176471,15.882352941176471,15.882352941176471,15.882352941176471,15.882352941176471,15.882352941176471,15.882352941176471,15.882352941176471,15.882352941176471,20.58823529411765,20.58823529411765,20.58823529411765,20.58823529411765,20.58823529411765,20.58823529411765,20.58823529411765,20.58823529411765,20.58823529411765,20.58823529411765,20.58823529411765,20.58823529411765,20.58823529411765,20.58823529411765,20.58823529411765,20.58823529411765,0.0,20.58823529411765,0.0,20.58823529411765,0.0,20.58823529411765,20.58823529411765,0.0,15.882352941176471,15.882352941176471,15.882352941176471,15.882352941176471,15.882352941176471,15.882352941176471,15.882352941176471,15.882352941176471,15.882352941176471,15.882352941176471,15.882352941176471,15.882352941176471,15.882352941176471,20.58823529411765,20.58823529411765,20.58823529411765,20.58823529411765,20.58823529411765,20.58823529411765,20.58823529411765,20.58823529411765,20.58823529411765,20.58823529411765,20.58823529411765,20.58823529411765,26.07843137254902,26.07843137254902,26.07843137254902,0.0,20.58823529411765,20.58823529411765,20.58823529411765,20.58823529411765,20.58823529411765,20.58823529411765,20.58823529411765,20.58823529411765,20.58823529411765,20.58823529411765,20.58823529411765,0.0,15.882352941176471,15.882352941176471,15.882352941176471,0.0,15.882352941176471,20.58823529411765,20.58823529411765,20.58823529411765,20.58823529411765,20.58823529411765,20.58823529411765,20.58823529411765,20.58823529411765,20.58823529411765,0.0,49.01960784313725,49.01960784313725,0.0,23.52941176470588,0.0,0.0,0.0,0.0,0.0,0.0,26.07843137254902,0.0,0.0,0.0,20.58823529411765,0.0,20.58823529411765
47.254901960784316,47.254901960784316,47.254901960784316,38.03921568627451,0.0,0.0,0.0,0.0,0.0,0.0,0.0,0.0,0.0,0.0,43.13725490196078,0.0,0.0,43.13725490196078,43.13725490196078,43.13725490196078,43.13725490196078,43.13725490196078,45.09803921568627,45.09803921568627,0.0,43.13725490196078,0.0,45.09803921568627,45.09803921568627,45.09803921568627,45.09803921568627,0.0,0.0,0.0,0.0,0.0,1.9607843137254901,1.9607843137254901,0.0,1.9607843137254901,1.9607843137254901,1.9607843137254901,0.0,1.9607843137254901,8.03921568627451,0.0,8.03921568627451,8.03921568627451,8.03921568627451,8.03921568627451,0.0,8.03921568627451,11.76470588235294,11.76470588235294,11.76470588235294,11.76470588235294,11.76470588235294,11.76470588235294,11.76470588235294,11.76470588235294,11.76470588235294,11.76470588235294,11.76470588235294,11.76470588235294,11.76470588235294,11.76470588235294,11.76470588235294,11.76470588235294,11.76470588235294,0.0,0.0,9.803921568627452,9.803921568627452,9.803921568627452,0.0,0.0,41.372549019607845,41.372549019607845,0.0,41.372549019607845,14.705882352941176,14.705882352941176,14.705882352941176,14.705882352941176,0.0,0.0,0.0,0.0,0.0,0.0,0.0,26.07843137254902,26.07843137254902,26.07843137254902,26.07843137254902,26.07843137254902,0.0,0.0,0.0,0.0,15.882352941176471,15.882352941176471,15.882352941176471,0.0,0.0,0.0,0.0,0.0,11.76470588235294,11.76470588235294,0.0,0.0,8.03921568627451,11.76470588235294,0.0,8.03921568627451,8.03921568627451,8.03921568627451,8.03921568627451,8.03921568627451,0.0,8.03921568627451,0.0,0.0,0.0,0.0,0.0,0.0,0.0,8.03921568627451,0.0,8.03921568627451,11.76470588235294,0.0,0.0,4.901960784313726,11.76470588235294,0.0,11.76470588235294,15.882352941176471,15.882352941176471,15.882352941176471,15.882352941176471,15.882352941176471,15.882352941176471,15.882352941176471,15.882352941176471,15.882352941176471,15.882352941176471,15.882352941176471,15.882352941176471,15.882352941176471,15.882352941176471,15.882352941176471,15.882352941176471,15.882352941176471,20.58823529411765,20.58823529411765,20.58823529411765,20.58823529411765,20.58823529411765,20.58823529411765,20.58823529411765,20.58823529411765,20.58823529411765,20.58823529411765,20.58823529411765,26.07843137254902,26.07843137254902,0.0,20.58823529411765,20.58823529411765,0.0,0.0,15.882352941176471,20.58823529411765,0.0,15.882352941176471,15.882352941176471,15.882352941176471,15.882352941176471,15.882352941176471,15.882352941176471,15.882352941176471,15.882352941176471,15.882352941176471,15.882352941176471,15.882352941176471,15.882352941176471,15.882352941176471,15.882352941176471,20.58823529411765,20.58823529411765,20.58823529411765,20.58823529411765,20.58823529411765,20.58823529411765,20.58823529411765,20.58823529411765,20.58823529411765,20.58823529411765,20.58823529411765,26.07843137254902,26.07843137254902,26.07843137254902,26.07843137254902,26.07843137254902,26.07843137254902,0.0,20.58823529411765,20.58823529411765,20.58823529411765,20.58823529411765,20.58823529411765,20.58823529411765,20.58823529411765,20.58823529411765,0.0,15.882352941176471,15.882352941176471,15.882352941176471,15.882352941176471,20.58823529411765,20.58823529411765,20.58823529411765,20.58823529411765,20.58823529411765,20.58823529411765,20.58823529411765,20.58823529411765,20.58823529411765,20.58823529411765,20.58823529411765,20.58823529411765,47.254901960784316,40.0,40.0,40.0,40.0,40.0,40.0,0.0,0.0,0.0,26.07843137254902,0.0,0.0,0.0,0.0,20.58823529411765,0.0
47.254901960784316,47.254901960784316,47.254901960784316,47.254901960784316,0.0,0.0,0.0,0.0,0.0,0.0,0.0,0.0,0.0,0.0,0.0,43.13725490196078,0.0,43.13725490196078,43.13725490196078,43.13725490196078,43.13725490196078,43.13725490196078,43.13725490196078,45.09803921568627,0.0,45.09803921568627,0.0,0.0,0.0,0.0,45.09803921568627,45.09803921568627,0.0,47.254901960784316,0.0,1.9607843137254901,1.9607843137254901,1.9607843137254901,1.9607843137254901,1.9607843137254901,1.9607843137254901,1.9607843137254901,1.9607843137254901,0.0,4.901960784313726,0.0,8.03921568627451,8.03921568627451,8.03921568627451,8.03921568627451,8.03921568627451,8.03921568627451,11.76470588235294,11.76470588235294,11.76470588235294,11.76470588235294,11.76470588235294,11.76470588235294,11.76470588235294,11.76470588235294,11.76470588235294,11.76470588235294,11.76470588235294,11.76470588235294,11.76470588235294,11.76470588235294,11.76470588235294,11.76470588235294,11.76470588235294,11.76470588235294,0.0,9.803921568627452,9.803921568627452,9.803921568627452,9.803921568627452,41.372549019607845,0.0,0.0,41.372549019607845,41.372549019607845,0.0,0.0,14.705882352941176,14.705882352941176,14.705882352941176,0.0,0.0,0.0,0.0,0.0,0.0,0.0,26.07843137254902,0.0,26.07843137254902,0.0,20.58823529411765,0.0,20.58823529411765,0.0,15.882352941176471,15.882352941176471,15.882352941176471,0.0,15.882352941176471,15.882352941176471,15.882352941176471,0.0,11.76470588235294,11.76470588235294,11.76470588235294,0.0,0.0,0.0,8.03921568627451,8.03921568627451,0.0,8.03921568627451,0.0,0.0,0.0,0.0,0.0,0.0,0.0,0.0,0.0,0.0,0.0,0.0,45.09803921568627,45.09803921568627,45.09803921568627,45.09803921568627,49.6078431372549,49.6078431372549,8.03921568627451,49.6078431372549,15.882352941176471,15.882352941176471,15.882352941176471,15.882352941176471,15.882352941176471,15.882352941176471,15.882352941176471,15.882352941176471,15.882352941176471,15.882352941176471,15.882352941176471,15.882352941176471,15.882352941176471,15.882352941176471,15.882352941176471,15.882352941176471,15.882352941176471,15.882352941176471,20.58823529411765,20.58823529411765,20.58823529411765,20.58823529411765,20.58823529411765,20.58823529411765,20.58823529411765,20.58823529411765,20.58823529411765,20.58823529411765,20.58823529411765,20.58823529411765,20.58823529411765,20.58823529411765,0.0,0.0,0.0,0.0,15.882352941176471,0.0,0.0,0.0,15.882352941176471,15.882352941176471,15.882352941176471,15.882352941176471,15.882352941176471,15.882352941176471,15.882352941176471,15.882352941176471,15.882352941176471,15.882352941176471,15.882352941176471,15.882352941176471,15.882352941176471,20.58823529411765,20.58823529411765,20.58823529411765,20.58823529411765,20.58823529411765,20.58823529411765,20.58823529411765,20.58823529411765,20.58823529411765,26.07843137254902,26.07843137254902,26.07843137254902,26.07843137254902,0.0,26.07843137254902,0.0,20.58823529411765,20.58823529411765,20.58823529411765,20.58823529411765,20.58823529411765,20.58823529411765,20.58823529411765,20.58823529411765,20.58823529411765,20.58823529411765,20.58823529411765,0.0,15.882352941176471,15.882352941176471,15.882352941176471,0.0,20.58823529411765,20.58823529411765,20.58823529411765,20.58823529411765,20.58823529411765,20.58823529411765,20.58823529411765,20.58823529411765,20.58823529411765,20.58823529411765,0.0,40.0,47.84313725490196,0.0,0.0,0.0,0.0,26.07843137254902,26.07843137254902,26.07843137254902,0.0,26.07843137254902,0.0,0.0,0.0,0.0,0.0,20.58823529411765
47.254901960784316,49.6078431372549,49.6078431372549,0.0,0.0,0.0,0.0,0.0,0.0,0.0,0.0,0.0,0.0,0.0,0.0,45.09803921568627,0.0,43.13725490196078,0.0,43.13725490196078,0.0,43.13725490196078,45.09803921568627,45.09803921568627,45.09803921568627,0.0,0.0,0.0,0.0,45.09803921568627,45.09803921568627,45.09803921568627,47.254901960784316,0.0,0.0,1.9607843137254901,1.9607843137254901,0.0,1.9607843137254901,1.9607843137254901,1.9607843137254901,1.9607843137254901,1.9607843137254901,4.901960784313726,0.0,0.0,4.901960784313726,8.03921568627451,8.03921568627451,8.03921568627451,8.03921568627451,11.76470588235294,11.76470588235294,11.76470588235294,11.76470588235294,11.76470588235294,11.76470588235294,11.76470588235294,11.76470588235294,11.76470588235294,11.76470588235294,11.76470588235294,11.76470588235294,11.76470588235294,11.76470588235294,11.76470588235294,11.76470588235294,11.76470588235294,11.76470588235294,11.76470588235294,0.0,8.03921568627451,9.803921568627452,9.803921568627452,0.0,0.0,0.0,0.0,0.0,41.372549019607845,0.0,14.705882352941176,14.705882352941176,14.705882352941176,14.705882352941176,0.0,0.0,0.0,0.0,0.0,0.0,0.0,0.0,20.58823529411765,0.0,20.58823529411765,20.58823529411765,0.0,20.58823529411765,0.0,15.882352941176471,15.882352941176471,15.882352941176471,0.0,0.0,0.0,0.0,0.0,11.76470588235294,0.0,11.76470588235294,0.0,0.0,0.0,0.0,0.0,8.03921568627451,0.0,0.0,0.0,0.0,0.0,0.0,47.254901960784316,47.254901960784316,47.254901960784316,47.254901960784316,0.0,0.0,45.09803921568627,45.09803921568627,45.09803921568627,45.09803921568627,45.09803921568627,45.09803921568627,45.09803921568627,0.0,49.6078431372549,49.6078431372549,15.882352941176471,15.882352941176471,15.882352941176471,15.882352941176471,15.882352941176471,15.882352941176471,15.882352941176471,15.882352941176471,15.882352941176471,15.882352941176471,15.882352941176471,15.882352941176471,15.882352941176471,15.882352941176471,15.882352941176471,15.882352941176471,15.882352941176471,20.58823529411765,20.58823529411765,20.58823529411765,20.58823529411765,20.58823529411765,20.58823529411765,20.58823529411765,20.58823529411765,20.58823529411765,20.58823529411765,20.58823529411765,20.58823529411765,20.58823529411765,20.58823529411765,0.0,0.0,0.0,0.0,0.0,0.0,0.0,0.0,15.882352941176471,15.882352941176471,15.882352941176471,15.882352941176471,15.882352941176471,15.882352941176471,15.882352941176471,15.882352941176471,15.882352941176471,15.882352941176471,15.882352941176471,15.882352941176471,15.882352941176471,20.58823529411765,20.58823529411765,20.58823529411765,20.58823529411765,20.58823529411765,20.58823529411765,20.58823529411765,20.58823529411765,20.58823529411765,20.58823529411765,26.07843137254902,26.07843137254902,0.0,20.58823529411765,20.58823529411765,20.58823529411765,20.58823529411765,20.58823529411765,20.58823529411765,20.58823529411765,20.58823529411765,20.58823529411765,20.58823529411765,20.58823529411765,20.58823529411765,20.58823529411765,20.58823529411765,0.0,15.882352941176471,15.882352941176471,15.882352941176471,0.0,20.58823529411765,20.58823529411765,20.58823529411765,20.58823529411765,20.58823529411765,20.58823529411765,20.58823529411765,20.58823529411765,20.58823529411765,20.58823529411765,40.0,40.0,0.0,0.0,32.35294117647059,32.35294117647059,0.0,26.07843137254902,26.07843137254902,26.07843137254902,26.07843137254902,26.07843137254902,26.07843137254902,26.07843137254902,0.0,0.0,0.0,0.0
49.6078431372549,49.6078431372549,49.6078431372549,49.6078431372549,0.0,0.0,0.0,0.0,0.0,0.0,0.0,0.0,0.0,0.0,0.0,43.13725490196078,0.0,43.13725490196078,43.13725490196078,43.13725490196078,43.13725490196078,45.09803921568627,45.09803921568627,45.09803921568627,45.09803921568627,0.0,45.09803921568627,45.09803921568627,45.09803921568627,45.09803921568627,45.09803921568627,45.09803921568627,45.09803921568627,49.6078431372549,4.901960784313726,0.0,4.901960784313726,0.0,1.9607843137254901,1.9607843137254901,0.0,1.9607843137254901,1.9607843137254901,4.901960784313726,4.901960784313726,4.901960784313726,0.0,4.901960784313726,8.03921568627451,8.03921568627451,8.03921568627451,11.76470588235294,11.76470588235294,11.76470588235294,11.76470588235294,11.76470588235294,11.76470588235294,11.76470588235294,11.76470588235294,11.76470588235294,11.76470588235294,11.76470588235294,11.76470588235294,11.76470588235294,11.76470588235294,11.76470588235294,11.76470588235294,11.76470588235294,11.76470588235294,11.76470588235294,0.0,8.03921568627451,9.803921568627452,9.803921568627452,0.0,0.0,0.0,0.0,0.0,0.0,14.705882352941176,14.705882352941176,14.705882352941176,14.705882352941176,14.705882352941176,14.705882352941176,0.0,0.0,0.0,0.0,0.0,0.0,0.0,0.0,20.58823529411765,20.58823529411765,20.58823529411765,0.0,20.58823529411765,0.0,15.882352941176471,15.882352941176471,15.882352941176471,0.0,11.76470588235294,0.0,0.0,0.0,11.76470588235294,11.76470588235294,11.76470588235294,0.0,0.0,0.0,0.0,0.0,0.0,0.0,0.0,0.0,0.0,47.254901960784316,0.0,47.254901960784316,47.254901960784316,0.0,47.254901960784316,47.254901960784316,0.0,45.09803921568627,45.09803921568627,45.09803921568627,45.09803921568627,45.09803921568627,45.09803921568627,45.09803921568627,49.6078431372549,49.6078431372549,0.0,49.6078431372549,15.882352941176471,15.882352941176471,15.882352941176471,15.882352941176471,15.882352941176471,15.882352941176471,15.882352941176471,15.882352941176471,15.882352941176471,15.882352941176471,15.882352941176471,15.882352941176471,15.882352941176471,15.882352941176471,15.882352941176471,20.58823529411765,20.58823529411765,20.58823529411765,20.58823529411765,20.58823529411765,20.58823529411765,20.58823529411765,20.58823529411765,20.58823529411765,20.58823529411765,20.58823529411765,0.0,15.882352941176471,15.882352941176471,0.0,0.0,0.0,0.0,0.0,0.0,0.0,0.0,0.0,15.882352941176471,15.882352941176471,15.882352941176471,15.882352941176471,15.882352941176471,15.882352941176471,15.882352941176471,15.882352941176471,15.882352941176471,15.882352941176471,15.882352941176471,15.882352941176471,15.882352941176471,20.58823529411765,20.58823529411765,20.58823529411765,20.58823529411765,20.58823529411765,20.58823529411765,20.58823529411765,20.58823529411765,20.58823529411765,20.58823529411765,32.35294117647059,32.35294117647059,0.0,26.07843137254902,26.07843137254902,26.07843137254902,0.0,20.58823529411765,20.58823529411765,20.58823529411765,20.58823529411765,20.58823529411765,20.58823529411765,20.58823529411765,20.58823529411765,20.58823529411765,20.58823529411765,0.0,15.882352941176471,15.882352941176471,15.882352941176471,0.0,20.58823529411765,20.58823529411765,20.58823529411765,20.58823529411765,20.58823529411765,20.58823529411765,20.58823529411765,20.58823529411765,20.58823529411765,20.58823529411765,0.0,40.0,0.0,0.0,40.0,0.0,32.35294117647059,0.0,26.07843137254902,26.07843137254902,26.07843137254902,26.07843137254902,26.07843137254902,26.07843137254902,26.07843137254902,26.07843137254902,0.0,0.0
49.6078431372549,49.6078431372549,49.6078431372549,0.0,0.0,0.0,0.0,0.0,0.0,0.0,0.0,0.0,0.0,0.0,43.13725490196078,43.13725490196078,43.13725490196078,43.13725490196078,43.13725490196078,43.13725490196078,45.09803921568627,45.09803921568627,45.09803921568627,45.09803921568627,45.09803921568627,45.09803921568627,45.09803921568627,45.09803921568627,45.09803921568627,45.09803921568627,45.09803921568627,45.09803921568627,45.09803921568627,49.6078431372549,4.901960784313726,0.0,4.901960784313726,4.901960784313726,4.901960784313726,0.0,1.9607843137254901,1.9607843137254901,0.0,4.901960784313726,0.0,0.0,0.0,4.901960784313726,4.901960784313726,8.03921568627451,8.03921568627451,8.03921568627451,11.76470588235294,11.76470588235294,11.76470588235294,11.76470588235294,11.76470588235294,11.76470588235294,11.76470588235294,11.76470588235294,11.76470588235294,11.76470588235294,11.76470588235294,11.76470588235294,11.76470588235294,11.76470588235294,11.76470588235294,11.76470588235294,11.76470588235294,0.0,8.03921568627451,8.03921568627451,9.803921568627452,41.372549019607845,41.372549019607845,0.0,38.8235294117647,38.8235294117647,38.8235294117647,38.8235294117647,0.0,0.0,0.0,0.0,0.0,0.0,0.0,29.6078431372549,0.0,0.0,0.0,0.0,0.0,20.58823529411765,20.58823529411765,20.58823529411765,20.58823529411765,0.0,0.0,0.0,15.882352941176471,15.882352941176471,15.882352941176471,0.0,11.76470588235294,0.0,11.76470588235294,11.76470588235294,11.76470588235294,11.76470588235294,0.0,0.0,0.0,0.0,0.0,0.0,0.0,0.0,0.0,0.0,47.254901960784316,47.254901960784316,47.254901960784316,47.254901960784316,47.254901960784316,47.254901960784316,47.254901960784316,47.254901960784316,0.0,45.09803921568627,45.09803921568627,45.09803921568627,45.09803921568627,45.09803921568627,45.09803921568627,45.09803921568627,49.6078431372549,49.6078431372549,49.6078431372549,49.6078431372549,15.882352941176471,15.882352941176471,15.882352941176471,15.882352941176471,15.882352941176471,15.882352941176471,15.882352941176471,15.882352941176471,15.882352941176471,15.882352941176471,15.882352941176471,15.882352941176471,15.882352941176471,15.882352941176471,15.882352941176471,20.58823529411765,20.58823529411765,20.58823529411765,20.58823529411765,0.0,20.58823529411765,20.58823529411765,20.58823529411765,0.0,20.58823529411765,0.0,0.0,15.882352941176471,0.0,49.6078431372549,0.0,49.6078431372549,0.0,0.0,0.0,0.0,0.0,49.6078431372549,49.6078431372549,49.6078431372549,15.882352941176471,15.882352941176471,15.882352941176471,15.882352941176471,15.882352941176471,15.882352941176471,15.882352941176471,15.882352941176471,15.882352941176471,15.882352941176471,15.882352941176471,0.0,20.58823529411765,20.58823529411765,20.58823529411765,20.58823529411765,20.58823529411765,20.58823529411765,20.58823529411765,20.58823529411765,26.07843137254902,26.07843137254902,32.35294117647059,0.0,26.07843137254902,0.0,20.58823529411765,20.58823529411765,20.58823529411765,20.58823529411765,20.58823529411765,20.58823529411765,20.58823529411765,20.58823529411765,20.58823529411765,20.58823529411765,20.58823529411765,20.58823529411765,0.0,15.882352941176471,15.882352941176471,0.0,0.0,15.882352941176471,20.58823529411765,20.58823529411765,20.58823529411765,20.58823529411765,20.58823529411765,20.58823529411765,20.58823529411765,20.58823529411765,20.58823529411765,20.58823529411765,40.0,0.0,0.0,0.0,0.0,26.07843137254902,26.07843137254902,0.0,26.07843137254902,26.07843137254902,26.07843137254902,26.07843137254902,26.07843137254902,26.07843137254902,26.07843137254902,0.0,26.07843137254902
0.0,49.6078431372549,0.0,0.0,0.0,0.0,0.0,0.0,0.0,0.0,0.0,0.0,0.0,0.0,43.13725490196078,43.13725490196078,43.13725490196078,43.13725490196078,43.13725490196078,45.09803921568627,45.09803921568627,45.09803921568627,45.09803921568627,45.09803921568627,45.09803921568627,45.09803921568627,45.09803921568627,45.09803921568627,45.09803921568627,45.09803921568627,45.09803921568627,0.0,49.6078431372549,49.6078431372549,4.901960784313726,4.901960784313726,0.0,1.9607843137254901,1.9607843137254901,1.9607843137254901,4.901960784313726,0.0,0.0,4.901960784313726,0.0,0.0,4.901960784313726,4.901960784313726,4.901960784313726,4.901960784313726,4.901960784313726,8.03921568627451,11.76470588235294,11.76470588235294,11.76470588235294,11.76470588235294,11.76470588235294,11.76470588235294,11.76470588235294,11.76470588235294,11.76470588235294,11.76470588235294,11.76470588235294,11.76470588235294,11.76470588235294,11.76470588235294,11.76470588235294,11.76470588235294,11.76470588235294,0.0,8.03921568627451,41.372549019607845,41.372549019607845,41.372549019607845,41.372549019607845,0.0,38.8235294117647,38.8235294117647,38.8235294117647,0.0,0.0,29.6078431372549,0.0,0.0,0.0,29.6078431372549,29.6078431372549,0.0,0.0,47.254901960784316,0.0,0.0,0.0,0.0,0.0,0.0,0.0,0.0,0.0,0.0,0.0,15.882352941176471,0.0,11.76470588235294,0.0,11.76470588235294,0.0,0.0,8.03921568627451,8.03921568627451,0.0,8.03921568627451,8.03921568627451,8.03921568627451,0.0,0.0,0.0,0.0,0.0,47.254901960784316,47.254901960784316,47.254901960784316,47.254901960784316,47.254901960784316,47.254901960784316,47.254901960784316,47.254901960784316,47.254901960784316,47.254901960784316,47.254901960784316,47.254901960784316,0.0,49.6078431372549,49.6078431372549,49.6078431372549,49.6078431372549,49.6078431372549,49.6078431372549,49.6078431372549,49.6078431372549,49.6078431372549,11.76470588235294,15.882352941176471,15.882352941176471,15.882352941176471,15.882352941176471,15.882352941176471,15.882352941176471,15.882352941176471,15.882352941176471,15.882352941176471,15.882352941176471,15.882352941176471,15.882352941176471,15.882352941176471,20.58823529411765,20.58823529411765,20.58823529411765,0.0,0.0,20.58823529411765,20.58823529411765,0.0,0.0,20.58823529411765,49.6078431372549,0.0,0.0,49.6078431372549,49.6078431372549,0.0,49.6078431372549,49.6078431372549,49.6078431372549,0.0,0.0,49.6078431372549,49.6078431372549,49.6078431372549,49.6078431372549,49.6078431372549,15.882352941176471,15.882352941176471,15.882352941176471,15.882352941176471,15.882352941176471,15.882352941176471,15.882352941176471,15.882352941176471,15.882352941176471,15.882352941176471,15.882352941176471,26.07843137254902,26.07843137254902,0.0,20.58823529411765,20.58823529411765,20.58823529411765,20.58823529411765,20.58823529411765,26.07843137254902,26.07843137254902,26.07843137254902,32.35294117647059,0.0,0.0,20.58823529411765,20.58823529411765,20.58823529411765,20.58823529411765,20.58823529411765,20.58823529411765,20.58823529411765,20.58823529411765,20.58823529411765,20.58823529411765,20.58823529411765,20.58823529411765,20.58823529411765,0.0,15.882352941176471,15.882352941176471,0.0,15.882352941176471,20.58823529411765,20.58823529411765,20.58823529411765,20.58823529411765,20.58823529411765,20.58823529411765,20.58823529411765,20.58823529411765,20.58823529411765,20.58823529411765,26.07843137254902,0.0,0.0,0.0,0.0,26.07843137254902,26.07843137254902,26.07843137254902,26.07843137254902,26.07843137254902,26.07843137254902,26.07843137254902,26.07843137254902,26.07843137254902,26.07843137254902,26.07843137254902,26.07843137254902
0.0,0.0,49.6078431372549,0.0,0.0,0.0,0.0,0.0,0.0,0.0,0.0,0.0,0.0,43.13725490196078,43.13725490196078,43.13725490196078,43.13725490196078,43.13725490196078,43.13725490196078,43.13725490196078,45.09803921568627,45.09803921568627,45.09803921568627,45.09803921568627,45.09803921568627,45.09803921568627,45.09803921568627,45.09803921568627,45.09803921568627,45.09803921568627,45.09803921568627,0.0,45.09803921568627,49.6078431372549,0.0,4.901960784313726,4.901960784313726,4.901960784313726,4.901960784313726,4.901960784313726,4.901960784313726,4.901960784313726,0.0,0.0,8.03921568627451,8.03921568627451,0.0,0.0,4.901960784313726,4.901960784313726,0.0,8.03921568627451,11.76470588235294,11.76470588235294,11.76470588235294,11.76470588235294,11.76470588235294,11.76470588235294,11.76470588235294,11.76470588235294,11.76470588235294,11.76470588235294,11.76470588235294,11.76470588235294,11.76470588235294,11.76470588235294,11.76470588235294,11.76470588235294,0.0,8.03921568627451,8.03921568627451,41.372549019607845,0.0,41.372549019607845,41.372549019607845,0.0,0.0,38.8235294117647,38.8235294117647,0.0,0.0,29.6078431372549,29.6078431372549,9.803921568627452,9.803921568627452,29.6078431372549,29.6078431372549,0.0,47.254901960784316,0.0,0.0,0.0,0.0,0.0,0.0,0.0,0.0,0.0,0.0,0.0,15.882352941176471,0.0,11.76470588235294,11.76470588235294,0.0,0.0,0.0,0.0,8.03921568627451,8.03921568627451,8.03921568627451,8.03921568627451,8.03921568627451,0.0,0.0,0.0,0.0,0.0,0.0,0.0,47.254901960784316,47.254901960784316,47.254901960784316,47.254901960784316,47.254901960784316,47.254901960784316,47.254901960784316,47.254901960784316,47.254901960784316,0.0,45.09803921568627,45.09803921568627,45.09803921568627,45.09803921568627,49.6078431372549,49.6078431372549,49.6078431372549,49.6078431372549,49.6078431372549,49.6078431372549,0.0,11.76470588235294,15.882352941176471,15.882352941176471,15.882352941176471,15.882352941176471,15.882352941176471,15.882352941176471,15.882352941176471,15.882352941176471,15.882352941176471,15.882352941176471,15.882352941176471,15.882352941176471,15.882352941176471,15.882352941176471,15.882352941176471,20.58823529411765,0.0,0.0,0.0,0.0,0.0,0.0,49.6078431372549,49.6078431372549,49.6078431372549,49.6078431372549,0.0,49.6078431372549,49.6078431372549,49.6078431372549,49.6078431372549,0.0,0.0,0.0,0.0,0.0,49.6078431372549,49.6078431372549,49.6078431372549,49.6078431372549,49.6078431372549,0.0,0.0,0.0,15.882352941176471,0.0,15.882352941176471,15.882352941176471,15.882352941176471,15.882352941176471,20.58823529411765,20.58823529411765,20.58823529411765,20.58823529411765,20.58823529411765,20.58823529411765,20.58823529411765,26.07843137254902,32.35294117647059,0.0,26.07843137254902,0.0,0.0,0.0,20.58823529411765,20.58823529411765,20.58823529411765,20.58823529411765,20.58823529411765,20.58823529411765,20.58823529411765,20.58823529411765,20.58823529411765,20.58823529411765,20.58823529411765,20.58823529411765,20.58823529411765,0.0,15.882352941176471,15.882352941176471,15.882352941176471,15.882352941176471,0.0,15.882352941176471,20.58823529411765,20.58823529411765,20.58823529411765,20.58823529411765,20.58823529411765,20.58823529411765,20.58823529411765,20.58823529411765,20.58823529411765,26.07843137254902,0.0,0.0,0.0,26.07843137254902,26.07843137254902,26.07843137254902,26.07843137254902,26.07843137254902,26.07843137254902,26.07843137254902,26.07843137254902,26.07843137254902,0.0,32.35294117647059,0.0
49.6078431372549,49.6078431372549,0.0,0.0,0.0,0.0,0.0,0.0,0.0,0.0,0.0,0.0,0.0,0.0,43.13725490196078,43.13725490196078,43.13725490196078,43.13725490196078,43.13725490196078,45.09803921568627,45.09803921568627,45.09803921568627,45.09803921568627,45.09803921568627,45.09803921568627,45.09803921568627,45.09803921568627,45.09803921568627,0.0,0.0,0.0,0.0,49.6078431372549,0.0,15.882352941176471,15.882352941176471,0.0,0.0,49.6078431372549,0.0,8.03921568627451,0.0,8.03921568627451,8.03921568627451,8.03921568627451,8.03921568627451,8.03921568627451,8.03921568627451,8.03921568627451,8.03921568627451,8.03921568627451,8.03921568627451,11.76470588235294,11.76470588235294,11.76470588235294,11.76470588235294,11.76470588235294,11.76470588235294,11.76470588235294,11.76470588235294,11.76470588235294,11.76470588235294,11.76470588235294,11.76470588235294,11.76470588235294,11.76470588235294,11.76470588235294,11.76470588235294,0.0,8.03921568627451,41.372549019607845,41.372549019607845,0.0,41.372549019607845,41.372549019607845,0.0,38.8235294117647,1.9607843137254901,38.8235294117647,0.0,0.0,29.6078431372549,9.803921568627452,9.803921568627452,29.6078431372549,29.6078431372549,29.6078431372549,0.0,47.254901960784316,0.0,0.0,0.0,0.0,0.0,0.0,0.0,0.0,0.0,0.0,0.0,15.882352941176471,15.882352941176471,0.0,11.76470588235294,0.0,11.76470588235294,0.0,0.0,8.03921568627451,0.0,0.0,8.03921568627451,0.0,0.0,0.0,0.0,0.0,0.0,0.0,47.254901960784316,47.254901960784316,47.254901960784316,47.254901960784316,47.254901960784316,47.254901960784316,47.254901960784316,47.254901960784316,47.254901960784316,47.254901960784316,47.254901960784316,0.0,45.09803921568627,45.09803921568627,0.0,49.6078431372549,49.6078431372549,49.6078431372549,0.0,47.254901960784316,49.6078431372549,49.6078431372549,1.9607843137254901,4.901960784313726,0.0,15.882352941176471,15.882352941176471,15.882352941176471,15.882352941176471,15.882352941176471,15.882352941176471,15.882352941176471,15.882352941176471,15.882352941176471,15.882352941176471,15.882352941176471,15.882352941176471,15.882352941176471,0.0,0.0,0.0,0.0,32.35294117647059,32.35294117647059,0.0,49.6078431372549,49.6078431372549,49.6078431372549,0.0,49.6078431372549,0.0,0.0,0.0,0.0,47.254901960784316,49.6078431372549,49.6078431372549,0.0,0.0,0.0,49.6078431372549,49.6078431372549,49.6078431372549,49.6078431372549,49.6078431372549,49.6078431372549,49.6078431372549,49.6078431372549,49.6078431372549,0.0,15.882352941176471,15.882352941176471,20.58823529411765,20.58823529411765,20.58823529411765,26.07843137254902,26.07843137254902,26.07843137254902,26.07843137254902,0.0,20.58823529411765,0.0,0.0,0.0,0.0,0.0,0.0,0.0,0.0,0.0,20.58823529411765,20.58823529411765,20.58823529411765,20.58823529411765,20.58823529411765,20.58823529411765,20.58823529411765,20.58823529411765,20.58823529411765,20.58823529411765,0.0,15.882352941176471,15.882352941176471,15.882352941176471,15.882352941176471,0.0,15.882352941176471,20.58823529411765,20.58823529411765,20.58823529411765,20.58823529411765,20.58823529411765,20.58823529411765,20.58823529411765,20.58823529411765,20.58823529411765,20.58823529411765,0.0,0.0,40.0,0.0,0.0,26.07843137254902,26.07843137254902,26.07843137254902,26.07843137254902,26.07843137254902,26.07843137254902,26.07843137254902,26.07843137254902,32.35294117647059,32.35294117647059
47.254901960784316,47.254901960784316,47.254901960784316,0.0,0.0,0.0,0.0,0.0,0.0,0.0,0.0,0.0,0.0,43.13725490196078,43.13725490196078,43.13725490196078,43.13725490196078,43.13725490196078,43.13725490196078,43.13725490196078,43.13725490196078,43.13725490196078,45.09803921568627,45.09803921568627,0.0,43.13725490196078,0.0,0.0,0.0,0.0,0.0,0.0,0.0,15.882352941176471,15.882352941176471,15.882352941176471,15.882352941176471,0.0,0.0,0.0,8.03921568627451,0.0,8.03921568627451,8.03921568627451,8.03921568627451,8.03921568627451,8.03921568627451,8.03921568627451,8.03921568627451,8.03921568627451,0.0,8.03921568627451,11.76470588235294,11.76470588235294,11.76470588235294,11.76470588235294,11.76470588235294,11.76470588235294,11.76470588235294,11.76470588235294,11.76470588235294,11.76470588235294,11.76470588235294,11.76470588235294,11.76470588235294,11.76470588235294,11.76470588235294,11.76470588235294,0.0,8.03921568627451,41.372549019607845,41.372549019607845,41.372549019607845,41.372549019607845,41.372549019607845,41.372549019607845,38.8235294117647,0.0,38.8235294117647,14.705882352941176,14.705882352941176,29.6078431372549,14.705882352941176,0.0,29.6078431372549,29.6078431372549,29.6078431372549,0.0,47.254901960784316,0.0,0.0,0.0,0.0,0.0,0.0,0.0,0.0,0.0,0.0,0.0,15.882352941176471,15.882352941176471,15.882352941176471,0.0,0.0,11.76470588235294,0.0,0.0,8.03921568627451,8.03921568627451,8.03921568627451,8.03921568627451,0.0,0.0,0.0,0.0,0.0,0.0,0.0,47.254901960784316,47.254901960784316,47.254901960784316,47.254901960784316,47.254901960784316,47.254901960784316,47.254901960784316,47.254901960784316,47.254901960784316,47.254901960784316,0.0,45.09803921568627,45.09803921568627,45.09803921568627,47.254901960784316,49.6078431372549,49.6078431372549,49.6078431372549,49.6078431372549,49.6078431372549,49.6078431372549,49.6078431372549,0.0,1.9607843137254901,15.882352941176471,15.882352941176471,15.882352941176471,15.882352941176471,15.882352941176471,15.882352941176471,15.882352941176471,15.882352941176471,15.882352941176471,15.882352941176471,15.882352941176471,15.882352941176471,15.882352941176471,15.882352941176471,0.0,0.0,0.0,0.0,0.0,49.6078431372549,49.6078431372549,49.6078431372549,49.6078431372549,49.6078431372549,49.6078431372549,49.6078431372549,49.6078431372549,49.6078431372549,49.6078431372549,49.6078431372549,49.6078431372549,49.6078431372549,49.6078431372549,49.6078431372549,49.6078431372549,49.6078431372549,49.6078431372549,49.6078431372549,49.6078431372549,49.6078431372549,49.6078431372549,49.6078431372549,49.6078431372549,49.6078431372549,49.6078431372549,49.6078431372549,15.882352941176471,0.0,20.58823529411765,20.58823529411765,20.58823529411765,20.58823529411765,20.58823529411765,20.58823529411765,20.58823529411765,0.0,0.0,0.0,0.0,0.0,0.0,0.0,0.0,0.0,0.0,20.58823529411765,20.58823529411765,20.58823529411765,20.58823529411765,20.58823529411765,20.58823529411765,20.58823529411765,20.58823529411765,20.58823529411765,20.58823529411765,20.58823529411765,0.0,15.882352941176471,15.882352941176471,15.882352941176471,15.882352941176471,15.882352941176471,15.882352941176471,20.58823529411765,20.58823529411765,20.58823529411765,20.58823529411765,20.58823529411765,20.58823529411765,20.58823529411765,20.58823529411765,20.58823529411765,20.58823529411765,20.58823529411765,20.58823529411765,0.0,0.0,26.07843137254902,26.07843137254902,26.07843137254902,26.07843137254902,26.07843137254902,26.07843137254902,26.07843137254902,26.07843137254902,26.07843137254902,32.35294117647059,0.0
47.254901960784316,47.254901960784316,0.0,0.0,0.0,0.0,0.0,0.0,0.0,0.0,0.0,0.0,0.0,43.13725490196078,43.13725490196078,43.13725490196078,43.13725490196078,43.13725490196078,43.13725490196078,43.13725490196078,43.13725490196078,43.13725490196078,43.13725490196078,43.13725490196078,43.13725490196078,43.13725490196078,43.13725490196078,43.13725490196078,43.13725490196078,0.0,0.0,0.0,0.0,15.882352941176471,0.0,11.76470588235294,11.76470588235294,15.882352941176471,0.0,0.0,0.0,0.0,0.0,8.03921568627451,8.03921568627451,8.03921568627451,8.03921568627451,8.03921568627451,8.03921568627451,8.03921568627451,8.03921568627451,8.03921568627451,11.76470588235294,11.76470588235294,11.76470588235294,11.76470588235294,11.76470588235294,11.76470588235294,11.76470588235294,11.76470588235294,11.76470588235294,11.76470588235294,11.76470588235294,11.76470588235294,11.76470588235294,11.76470588235294,11.76470588235294,11.76470588235294,0.0,8.03921568627451,0.0,0.0,41.372549019607845,41.372549019607845,41.372549019607845,41.372549019607845,41.372549019607845,0.0,14.705882352941176,14.705882352941176,14.705882352941176,14.705882352941176,41.1764705882353,14.705882352941176,14.705882352941176,14.705882352941176,0.0,0.0,0.0,0.0,0.0,0.0,0.0,0.0,0.0,0.0,0.0,0.0,0.0,0.0,15.882352941176471,0.0,15.882352941176471,15.882352941176471,0.0,11.76470588235294,39.6078431372549,8.03921568627451,8.03921568627451,8.03921568627451,8.03921568627451,8.03921568627451,0.0,0.0,0.0,0.0,0.0,0.0,0.0,0.0,47.254901960784316,47.254901960784316,47.254901960784316,47.254901960784316,47.254901960784316,47.254901960784316,47.254901960784316,47.254901960784316,47.254901960784316,0.0,45.09803921568627,45.09803921568627,47.254901960784316,49.6078431372549,49.6078431372549,49.6078431372549,49.6078431372549,0.0,47.254901960784316,47.254901960784316,49.6078431372549,0.0,0.0,15.882352941176471,15.882352941176471,15.882352941176471,15.882352941176471,15.882352941176471,15.882352941176471,15.882352941176471,15.882352941176471,15.882352941176471,15.882352941176471,0.0,15.882352941176471,0.0,0.0,0.0,0.0,0.0,49.6078431372549,49.6078431372549,49.6078431372549,49.6078431372549,49.6078431372549,49.6078431372549,49.6078431372549,49.6078431372549,49.6078431372549,49.6078431372549,49.6078431372549,49.6078431372549,49.6078431372549,49.6078431372549,49.6078431372549,49.6078431372549,49.6078431372549,49.6078431372549,49.6078431372549,49.6078431372549,49.6078431372549,49.6078431372549,49.6078431372549,49.6078431372549,49.6078431372549,49.6078431372549,49.6078431372549,49.6078431372549,49.6078431372549,49.6078431372549,49.6078431372549,49.6078431372549,20.58823529411765,20.58823529411765,20.58823529411765,20.58823529411765,20.58823529411765,20.58823529411765,0.0,0.0,0.0,0.0,0.0,0.0,0.0,0.0,0.0,0.0,0.0,20.58823529411765,20.58823529411765,20.58823529411765,20.58823529411765,20.58823529411765,20.58823529411765,20.58823529411765,20.58823529411765,20.58823529411765,20.58823529411765,0.0,15.882352941176471,15.882352941176471,15.882352941176471,15.882352941176471,15.882352941176471,15.882352941176471,20.58823529411765,20.58823529411765,20.58823529411765,20.58823529411765,20.58823529411765,20.58823529411765,20.58823529411765,20.58823529411765,20.58823529411765,20.58823529411765,20.58823529411765,20.58823529411765,40.0,0.0,0.0,0.0,26.07843137254902,26.07843137254902,26.07843137254902,26.07843137254902,26.07843137254902,26.07843137254902,32.35294117647059,0.0,0.0
0.0,45.09803921568627,45.09803921568627,0.0,0.0,0.0,0.0,0.0,0.0,0.0,0.0,0.0,0.0,43.13725490196078,43.13725490196078,43.13725490196078,43.13725490196078,43.13725490196078,43.13725490196078,43.13725490196078,43.13725490196078,43.13725490196078,43.13725490196078,43.13725490196078,43.13725490196078,43.13725490196078,43.13725490196078,43.13725490196078,43.13725490196078,0.0,0.0,0.0,0.0,0.0,0.0,11.76470588235294,11.76470588235294,0.0,11.76470588235294,11.76470588235294,39.6078431372549,0.0,0.0,0.0,8.03921568627451,8.03921568627451,8.03921568627451,8.03921568627451,8.03921568627451,0.0,8.03921568627451,11.76470588235294,11.76470588235294,11.76470588235294,11.76470588235294,11.76470588235294,11.76470588235294,11.76470588235294,11.76470588235294,11.76470588235294,11.76470588235294,11.76470588235294,11.76470588235294,11.76470588235294,11.76470588235294,11.76470588235294,11.76470588235294,11.76470588235294,15.882352941176471,0.0,0.0,0.0,41.372549019607845,41.372549019607845,0.0,41.372549019607845,41.372549019607845,0.0,14.705882352941176,14.705882352941176,14.705882352941176,41.1764705882353,41.1764705882353,41.1764705882353,41.1764705882353,14.705882352941176,0.0,0.0,0.0,47.254901960784316,0.0,0.0,0.0,0.0,0.0,0.0,0.0,0.0,0.0,0.0,0.0,0.0,11.76470588235294,11.76470588235294,11.76470588235294,0.0,41.1764705882353,0.0,41.1764705882353,8.03921568627451,0.0,0.0,0.0,0.0,0.0,0.0,0.0,0.0,0.0,0.0,47.254901960784316,47.254901960784316,47.254901960784316,47.254901960784316,47.254901960784316,47.254901960784316,47.254901960784316,47.254901960784316,47.254901960784316,47.254901960784316,0.0,45.09803921568627,45.09803921568627,49.6078431372549,0.0,49.6078431372549,49.6078431372549,0.0,47.254901960784316,49.6078431372549,0.0,49.6078431372549,0.0,15.882352941176471,15.882352941176471,15.882352941176471,15.882352941176471,15.882352941176471,15.882352941176471,15.882352941176471,15.882352941176471,0.0,0.0,0.0,0.0,4.901960784313726,0.0,0.0,49.6078431372549,49.6078431372549,49.6078431372549,49.6078431372549,49.6078431372549,49.6078431372549,49.6078431372549,49.6078431372549,49.6078431372549,49.6078431372549,49.6078431372549,49.6078431372549,49.6078431372549,49.6078431372549,49.6078431372549,49.6078431372549,49.6078431372549,49.6078431372549,49.6078431372549,49.6078431372549,49.6078431372549,49.6078431372549,49.6078431372549,49.6078431372549,49.6078431372549,49.6078431372549,49.6078431372549,49.6078431372549,49.6078431372549,49.6078431372549,49.6078431372549,49.6078431372549,49.6078431372549,49.6078431372549,0.0,0.0,15.882352941176471,15.882352941176471,1.9607843137254901,15.882352941176471,0.0,0.0,1.9607843137254901,0.0,1.9607843137254901,0.0,1.9607843137254901,0.0,0.0,0.0,0.0,0.0,20.58823529411765,20.58823529411765,20.58823529411765,20.58823529411765,20.58823529411765,20.58823529411765,20.58823529411765,20.58823529411765,20.58823529411765,0.0,15.882352941176471,15.882352941176471,15.882352941176471,15.882352941176471,15.882352941176471,0.0,20.58823529411765,20.58823529411765,20.58823529411765,20.58823529411765,20.58823529411765,20.58823529411765,20.58823529411765,20.58823529411765,20.58823529411765,20.58823529411765,0.0,20.58823529411765,40.0,0.0,0.0,0.0,26.07843137254902,26.07843137254902,26.07843137254902,26.07843137254902,26.07843137254902,26.07843137254902,32.35294117647059,0.0,26.07843137254902
45.09803921568627,45.09803921568627,45.09803921568627,0.0,0.0,0.0,0.0,0.0,0.0,0.0,0.0,0.0,0.0,43.13725490196078,43.13725490196078,43.13725490196078,43.13725490196078,43.13725490196078,43.13725490196078,43.13725490196078,43.13725490196078,43.13725490196078,43.13725490196078,43.13725490196078,43.13725490196078,43.13725490196078,43.13725490196078,43.13725490196078,43.13725490196078,41.372549019607845,41.372549019607845,14.705882352941176,14.705882352941176,47.254901960784316,0.0,11.76470588235294,11.76470588235294,11.76470588235294,0.0,39.6078431372549,39.6078431372549,39.6078431372549,0.0,0.0,8.03921568627451,8.03921568627451,8.03921568627451,8.03921568627451,0.0,0.0,8.03921568627451,11.76470588235294,11.76470588235294,11.76470588235294,11.76470588235294,11.76470588235294,11.76470588235294,11.76470588235294,11.76470588235294,11.76470588235294,11.76470588235294,11.76470588235294,11.76470588235294,11.76470588235294,11.76470588235294,11.76470588235294,11.76470588235294,11.76470588235294,0.0,0.0,0.0,0.0,0.0,0.0,0.0,0.0,0.0,0.0,0.0,14.705882352941176,0.0,41.1764705882353,41.1764705882353,0.0,41.1764705882353,14.705882352941176,0.0,0.0,0.0,0.0,0.0,0.0,0.0,0.0,0.0,0.0,0.0,0.0,0.0,0.0,0.0,49.6078431372549,0.0,38.03921568627451,38.03921568627451,0.0,41.1764705882353,41.1764705882353,41.1764705882353,8.03921568627451,0.0,0.0,0.0,0.0,0.0,0.0,0.0,0.0,0.0,47.254901960784316,47.254901960784316,47.254901960784316,47.254901960784316,47.254901960784316,47.254901960784316,47.254901960784316,47.254901960784316,47.254901960784316,47.254901960784316,0.0,45.09803921568627,45.09803921568627,49.6078431372549,49.6078431372549,0.0,47.254901960784316,47.254901960784316,47.254901960784316,47.254901960784316,47.254901960784316,47.254901960784316,0.0,15.882352941176471,15.882352941176471,15.882352941176471,15.882352941176471,15.882352941176471,15.882352941176471,15.882352941176471,15.882352941176471,15.882352941176471,15.882352941176471,0.0,0.0,0.0,4.901960784313726,0.0,0.0,49.6078431372549,49.6078431372549,49.6078431372549,49.6078431372549,49.6078431372549,49.6078431372549,49.6078431372549,49.6078431372549,49.6078431372549,49.6078431372549,49.6078431372549,49.6078431372549,49.6078431372549,49.6078431372549,49.6078431372549,49.6078431372549,49.6078431372549,49.6078431372549,49.6078431372549,49.6078431372549,49.6078431372549,49.6078431372549,49.6078431372549,49.6078431372549,49.6078431372549,49.6078431372549,49.6078431372549,49.6078431372549,49.6078431372549,49.6078431372549,49.6078431372549,1.9607843137254901,0.0,49.6078431372549,0.0,15.882352941176471,15.882352941176471,0.0,0.0,0.0,15.882352941176471,1.9607843137254901,1.9607843137254901,1.9607843137254901,0.0,0.0,49.6078431372549,1.9607843137254901,0.0,0.0,0.0,0.0,0.0,20.58823529411765,20.58823529411765,20.58823529411765,20.58823529411765,20.58823529411765,20.58823529411765,20.58823529411765,0.0,15.882352941176471,15.882352941176471,15.882352941176471,15.882352941176471,15.882352941176471,15.882352941176471,15.882352941176471,20.58823529411765,20.58823529411765,20.58823529411765,20.58823529411765,20.58823529411765,20.58823529411765,20.58823529411765,20.58823529411765,20.58823529411765,20.58823529411765,20.58823529411765,20.58823529411765,40.0,40.0,40.0,40.0,0.0,0.0,0.0,26.07843137254902,26.07843137254902,26.07843137254902,0.0,32.35294117647059,32.35294117647059
45.09803921568627,45.09803921568627,45.09803921568627,0.0,0.0,0.0,0.0,0.0,0.0,0.0,0.0,0.0,0.0,43.13725490196078,43.13725490196078,43.13725490196078,43.13725490196078,43.13725490196078,43.13725490196078,43.13725490196078,43.13725490196078,43.13725490196078,43.13725490196078,43.13725490196078,43.13725490196078,43.13725490196078,43.13725490196078,43.13725490196078,43.13725490196078,43.13725490196078,43.13725490196078,0.0,0.0,0.0,0.0,0.0,0.0,0.0,11.76470588235294,15.882352941176471,15.882352941176471,0.0,0.0,8.03921568627451,8.03921568627451,8.03921568627451,0.0,0.0,4.901960784313726,8.03921568627451,11.76470588235294,11.76470588235294,11.76470588235294,11.76470588235294,11.76470588235294,11.76470588235294,11.76470588235294,11.76470588235294,11.76470588235294,11.76470588235294,11.76470588235294,11.76470588235294,11.76470588235294,11.76470588235294,11.76470588235294,11.76470588235294,11.76470588235294,11.76470588235294,11.76470588235294,0.0,0.0,0.0,0.0,0.0,0.0,0.0,0.0,0.0,0.0,0.0,41.1764705882353,41.1764705882353,41.1764705882353,41.1764705882353,41.1764705882353,41.1764705882353,41.1764705882353,26.07843137254902,38.8235294117647,38.8235294117647,0.0,0.0,0.0,0.0,0.0,0.0,0.0,0.0,0.0,49.6078431372549,49.6078431372549,49.6078431372549,0.0,0.0,38.03921568627451,0.0,0.0,39.6078431372549,39.6078431372549,39.6078431372549,0.0,4.901960784313726,0.0,0.0,0.0,0.0,0.0,0.0,0.0,47.254901960784316,47.254901960784316,47.254901960784316,47.254901960784316,47.254901960784316,47.254901960784316,47.254901960784316,47.254901960784316,47.254901960784316,47.254901960784316,0.0,45.09803921568627,49.6078431372549,49.6078431372549,49.6078431372549,49.6078431372549,0.0,47.254901960784316,47.254901960784316,47.254901960784316,47.254901960784316,47.254901960784316,0.0,15.882352941176471,15.882352941176471,15.882352941176471,15.882352941176471,15.882352941176471,15.882352941176471,15.882352941176471,15.882352941176471,15.882352941176471,15.882352941176471,0.0,0.0,0.0,0.0,1.9607843137254901,1.9607843137254901,0.0,49.6078431372549,49.6078431372549,49.6078431372549,49.6078431372549,49.6078431372549,49.6078431372549,49.6078431372549,49.6078431372549,49.6078431372549,49.6078431372549,49.6078431372549,49.6078431372549,49.6078431372549,49.6078431372549,49.6078431372549,49.6078431372549,49.6078431372549,49.6078431372549,49.6078431372549,49.6078431372549,49.6078431372549,49.6078431372549,49.6078431372549,49.6078431372549,49.6078431372549,49.6078431372549,49.6078431372549,49.6078431372549,49.6078431372549,49.6078431372549,1.9607843137254901,1.9607843137254901,1.9607843137254901,1.9607843137254901,0.0,1.9607843137254901,0.0,49.6078431372549,49.6078431372549,49.6078431372549,49.6078431372549,49.6078431372549,49.6078431372549,49.6078431372549,49.6078431372549,0.0,49.6078431372549,0.0,0.0,1.9607843137254901,1.9607843137254901,0.0,1.9607843137254901,20.58823529411765,20.58823529411765,20.58823529411765,20.58823529411765,20.58823529411765,20.58823529411765,0.0,15.882352941176471,15.882352941176471,15.882352941176471,15.882352941176471,15.882352941176471,15.882352941176471,15.882352941176471,20.58823529411765,20.58823529411765,20.58823529411765,20.58823529411765,20.58823529411765,20.58823529411765,20.58823529411765,20.58823529411765,20.58823529411765,20.58823529411765,20.58823529411765,20.58823529411765,20.58823529411765,40.0,40.0,40.0,40.0,0.0,0.0,26.07843137254902,26.07843137254902,26.07843137254902,0.0,32.35294117647059,32.35294117647059
45.09803921568627,0.0,43.13725490196078,45.09803921568627,0.0,0.0,0.0,0.0,0.0,0.0,0.0,0.0,0.0,43.13725490196078,43.13725490196078,43.13725490196078,43.13725490196078,0.0,43.13725490196078,43.13725490196078,43.13725490196078,43.13725490196078,43.13725490196078,43.13725490196078,43.13725490196078,43.13725490196078,43.13725490196078,43.13725490196078,43.13725490196078,43.13725490196078,43.13725490196078,0.0,0.0,0.0,0.0,0.0,11.76470588235294,11.76470588235294,0.0,11.76470588235294,11.76470588235294,11.76470588235294,15.882352941176471,15.882352941176471,49.01960784313725,0.0,0.0,0.0,0.0,0.0,0.0,11.76470588235294,11.76470588235294,11.76470588235294,11.76470588235294,11.76470588235294,11.76470588235294,11.76470588235294,11.76470588235294,11.76470588235294,11.76470588235294,11.76470588235294,11.76470588235294,11.76470588235294,11.76470588235294,0.0,11.76470588235294,11.76470588235294,11.76470588235294,0.0,0.0,0.0,0.0,41.1764705882353,0.0,0.0,43.13725490196078,0.0,41.1764705882353,41.1764705882353,0.0,0.0,39.6078431372549,39.6078431372549,39.6078431372549,39.6078431372549,26.07843137254902,38.8235294117647,38.8235294117647,38.8235294117647,38.8235294117647,0.0,0.0,0.0,0.0,0.0,0.0,0.0,49.6078431372549,49.6078431372549,49.6078431372549,0.0,0.0,0.0,0.0,0.0,39.6078431372549,39.6078431372549,39.6078431372549,39.6078431372549,39.6078431372549,0.0,0.0,0.0,0.0,0.0,0.0,0.0,47.254901960784316,47.254901960784316,47.254901960784316,47.254901960784316,47.254901960784316,47.254901960784316,47.254901960784316,47.254901960784316,47.254901960784316,47.254901960784316,47.254901960784316,0.0,45.09803921568627,45.09803921568627,49.6078431372549,49.6078431372549,49.6078431372549,0.0,47.254901960784316,47.254901960784316,47.254901960784316,49.6078431372549,49.6078431372549,15.882352941176471,15.882352941176471,15.882352941176471,15.882352941176471,15.882352941176471,15.882352941176471,15.882352941176471,15.882352941176471,15.882352941176471,0.0,0.0,0.0,0.0,0.0,0.0,0.0,49.6078431372549,49.6078431372549,49.6078431372549,49.6078431372549,49.6078431372549,49.6078431372549,49.6078431372549,49.6078431372549,49.6078431372549,49.6078431372549,49.6078431372549,49.6078431372549,49.6078431372549,49.6078431372549,49.6078431372549,49.6078431372549,49.6078431372549,49.6078431372549,49.6078431372549,49.6078431372549,49.6078431372549,49.6078431372549,49.6078431372549,49.6078431372549,49.6078431372549,49.6078431372549,49.6078431372549,49.6078431372549,49.6078431372549,49.6078431372549,49.6078431372549,49.6078431372549,1.9607843137254901,1.9607843137254901,0.0,49.6078431372549,49.6078431372549,49.6078431372549,49.6078431372549,49.6078431372549,49.6078431372549,49.6078431372549,49.6078431372549,49.6078431372549,49.6078431372549,49.6078431372549,0.0,1.9607843137254901,0.0,49.6078431372549,1.9607843137254901,1.9607843137254901,1.9607843137254901,0.0,1.9607843137254901,0.0,20.58823529411765,20.58823529411765,20.58823529411765,20.58823529411765,0.0,15.882352941176471,15.882352941176471,15.882352941176471,15.882352941176471,15.882352941176471,15.882352941176471,15.882352941176471,15.882352941176471,20.58823529411765,20.58823529411765,20.58823529411765,20.58823529411765,20.58823529411765,20.58823529411765,20.58823529411765,20.58823529411765,20.58823529411765,20.58823529411765,20.58823529411765,20.58823529411765,20.58823529411765,20.58823529411765,40.0,40.0,40.0,0.0,32.35294117647059,0.0,26.07843137254902,0.0,0.0,32.35294117647059,32.35294117647059
45.09803921568627,45.09803921568627,0.0,43.13725490196078,0.0,43.13725490196078,43.13725490196078,43.13725490196078,0.0,0.0,0.0,0.0,43.13725490196078,43.13725490196078,0.0,41.1764705882353,41.1764705882353,0.0,41.1764705882353,43.13725490196078,43.13725490196078,43.13725490196078,43.13725490196078,43.13725490196078,43.13725490196078,43.13725490196078,43.13725490196078,43.13725490196078,43.13725490196078,43.13725490196078,43.13725490196078,43.13725490196078,0.0,0.0,0.0,47.254901960784316,47.254901960784316,0.0,0.0,11.76470588235294,11.76470588235294,11.76470588235294,0.0,0.0,49.01960784313725,0.0,0.0,0.0,0.0,0.0,0.0,0.0,11.76470588235294,11.76470588235294,11.76470588235294,11.76470588235294,11.76470588235294,11.76470588235294,11.76470588235294,11.76470588235294,11.76470588235294,11.76470588235294,0.0,0.0,0.0,0.0,0.0,0.0,0.0,0.0,0.0,0.0,0.0,41.1764705882353,41.1764705882353,41.1764705882353,41.1764705882353,41.1764705882353,41.1764705882353,41.1764705882353,0.0,0.0,0.0,41.1764705882353,41.1764705882353,0.0,0.0,0.0,0.0,38.8235294117647,0.0,0.0,0.0,0.0,0.0,0.0,0.0,0.0,0.0,0.0,0.0,0.0,0.0,36.666666666666664,39.6078431372549,39.6078431372549,39.6078431372549,39.6078431372549,39.6078431372549,39.6078431372549,39.6078431372549,41.1764705882353,0.0,0.0,49.6078431372549,0.0,0.0,47.254901960784316,47.254901960784316,47.254901960784316,47.254901960784316,47.254901960784316,47.254901960784316,47.254901960784316,47.254901960784316,47.254901960784316,47.254901960784316,47.254901960784316,0.0,0.0,45.09803921568627,45.09803921568627,45.09803921568627,0.0,47.254901960784316,49.6078431372549,49.6078431372549,0.0,47.254901960784316,47.254901960784316,47.254901960784316,15.882352941176471,15.882352941176471,15.882352941176471,15.882352941176471,15.882352941176471,15.882352941176471,15.882352941176471,15.882352941176471,15.882352941176471,0.0,0.0,0.0,0.0,0.0,1.9607843137254901,0.0,49.6078431372549,49.6078431372549,49.6078431372549,49.6078431372549,49.6078431372549,49.6078431372549,49.6078431372549,49.6078431372549,49.6078431372549,49.6078431372549,49.6078431372549,49.6078431372549,49.6078431372549,49.6078431372549,49.6078431372549,49.6078431372549,49.6078431372549,49.6078431372549,49.6078431372549,49.6078431372549,49.6078431372549,49.6078431372549,49.6078431372549,49.6078431372549,0.0,49.6078431372549,49.6078431372549,49.6078431372549,49.6078431372549,49.6078431372549,49.6078431372549,49.6078431372549,1.9607843137254901,0.0,0.0,49.6078431372549,49.6078431372549,49.6078431372549,49.6078431372549,49.6078431372549,49.6078431372549,49.6078431372549,0.0,47.254901960784316,47.254901960784316,49.6078431372549,0.0,47.254901960784316,49.6078431372549,49.6078431372549,1.9607843137254901,1.9607843137254901,1.9607843137254901,1.9607843137254901,1.9607843137254901,0.0,0.0,20.58823529411765,20.58823529411765,20.58823529411765,0.0,15.882352941176471,15.882352941176471,15.882352941176471,15.882352941176471,15.882352941176471,15.882352941176471,15.882352941176471,20.58823529411765,20.58823529411765,20.58823529411765,20.58823529411765,20.58823529411765,20.58823529411765,20.58823529411765,20.58823529411765,20.58823529411765,20.58823529411765,20.58823529411765,20.58823529411765,20.58823529411765,20.58823529411765,20.58823529411765,40.0,40.0,40.0,0.0,32.35294117647059,0.0,0.0,0.0,0.0,32.35294117647059,32.35294117647059
45.09803921568627,45.09803921568627,45.09803921568627,45.09803921568627,0.0,43.13725490196078,43.13725490196078,0.0,41.1764705882353,0.0,0.0,0.0,0.0,41.1764705882353,41.1764705882353,41.1764705882353,41.1764705882353,41.1764705882353,41.1764705882353,0.0,43.13725490196078,43.13725490196078,43.13725490196078,43.13725490196078,43.13725490196078,43.13725490196078,43.13725490196078,43.13725490196078,43.13725490196078,0.0,0.0,0.0,0.0,0.0,47.254901960784316,47.254901960784316,0.0,0.0,0.0,41.1764705882353,11.76470588235294,41.1764705882353,41.1764705882353,49.01960784313725,49.01960784313725,49.01960784313725,49.01960784313725,0.0,0.0,49.01960784313725,49.01960784313725,49.01960784313725,0.0,0.0,0.0,0.0,0.0,0.0,11.76470588235294,11.76470588235294,11.76470588235294,0.0,0.0,0.0,0.0,0.0,0.0,0.0,0.0,0.0,0.0,0.0,0.0,41.1764705882353,41.1764705882353,41.1764705882353,41.1764705882353,41.1764705882353,41.1764705882353,41.1764705882353,41.1764705882353,41.1764705882353,41.1764705882353,41.1764705882353,41.1764705882353,0.0,0.0,0.0,0.0,0.0,0.0,0.0,0.0,0.0,0.0,1.9607843137254901,1.9607843137254901,0.0,0.0,8.03921568627451,8.03921568627451,0.0,0.0,0.0,0.0,0.0,0.0,8.03921568627451,0.0,0.0,0.0,49.6078431372549,49.6078431372549,49.6078431372549,49.6078431372549,49.6078431372549,49.6078431372549,49.6078431372549,0.0,47.254901960784316,47.254901960784316,47.254901960784316,47.254901960784316,47.254901960784316,47.254901960784316,47.254901960784316,47.254901960784316,47.254901960784316,0.0,47.254901960784316,47.254901960784316,47.254901960784316,49.6078431372549,49.6078431372549,0.0,49.6078431372549,49.6078431372549,0.0,47.254901960784316,0.0,15.882352941176471,15.882352941176471,15.882352941176471,15.882352941176471,15.882352941176471,15.882352941176471,15.882352941176471,15.882352941176471,15.882352941176471,15.882352941176471,0.0,0.0,0.0,0.0,1.9607843137254901,1.9607843137254901,0.0,49.6078431372549,49.6078431372549,49.6078431372549,49.6078431372549,49.6078431372549,49.6078431372549,49.6078431372549,49.6078431372549,49.6078431372549,49.6078431372549,49.6078431372549,49.6078431372549,49.6078431372549,49.6078431372549,49.6078431372549,49.6078431372549,49.6078431372549,49.6078431372549,49.6078431372549,49.6078431372549,49.6078431372549,49.6078431372549,49.6078431372549,49.6078431372549,0.0,49.6078431372549,49.6078431372549,49.6078431372549,49.6078431372549,49.6078431372549,49.6078431372549,49.6078431372549,1.9607843137254901,1.9607843137254901,0.0,49.6078431372549,49.6078431372549,49.6078431372549,49.6078431372549,49.6078431372549,49.6078431372549,49.6078431372549,49.6078431372549,49.6078431372549,49.6078431372549,0.0,49.6078431372549,49.6078431372549,49.6078431372549,0.0,0.0,0.0,1.9607843137254901,0.0,1.9607843137254901,1.9607843137254901,0.0,49.6078431372549,15.882352941176471,20.58823529411765,0.0,15.882352941176471,15.882352941176471,15.882352941176471,15.882352941176471,15.882352941176471,15.882352941176471,15.882352941176471,20.58823529411765,20.58823529411765,20.58823529411765,20.58823529411765,20.58823529411765,20.58823529411765,20.58823529411765,20.58823529411765,20.58823529411765,20.58823529411765,20.58823529411765,20.58823529411765,20.58823529411765,20.58823529411765,20.58823529411765,40.0,40.0,40.0,40.0,0.0,0.0,0.0,0.0,26.07843137254902,0.0,26.07843137254902
45.09803921568627,0.0,43.13725490196078,45.09803921568627,0.0,43.13725490196078,43.13725490196078,43.13725490196078,0.0,0.0,43.13725490196078,43.13725490196078,0.0,41.1764705882353,41.1764705882353,41.1764705882353,41.1764705882353,41.1764705882353,41.1764705882353,41.1764705882353,43.13725490196078,43.13725490196078,43.13725490196078,43.13725490196078,43.13725490196078,43.13725490196078,43.13725490196078,43.13725490196078,0.0,43.13725490196078,0.0,0.0,0.0,0.0,47.254901960784316,0.0,0.0,0.0,41.1764705882353,41.1764705882353,41.1764705882353,41.1764705882353,41.1764705882353,49.01960784313725,49.01960784313725,49.01960784313725,0.0,0.0,0.0,0.0,0.0,0.0,0.0,0.0,0.0,0.0,0.0,0.0,0.0,11.76470588235294,0.0,43.13725490196078,43.13725490196078,43.13725490196078,0.0,0.0,45.09803921568627,0.0,0.0,0.0,0.0,0.0,0.0,41.1764705882353,41.1764705882353,41.1764705882353,41.1764705882353,41.1764705882353,41.1764705882353,41.1764705882353,41.1764705882353,41.1764705882353,0.0,41.1764705882353,41.1764705882353,41.1764705882353,0.0,0.0,0.0,47.254901960784316,0.0,0.0,47.254901960784316,47.254901960784316,4.901960784313726,4.901960784313726,0.0,0.0,8.03921568627451,8.03921568627451,8.03921568627451,8.03921568627451,8.03921568627451,8.03921568627451,0.0,4.901960784313726,4.901960784313726,8.03921568627451,0.0,0.0,4.901960784313726,49.6078431372549,0.0,49.6078431372549,0.0,49.6078431372549,0.0,0.0,0.0,47.254901960784316,47.254901960784316,0.0,47.254901960784316,47.254901960784316,47.254901960784316,47.254901960784316,47.254901960784316,47.254901960784316,0.0,0.0,0.0,0.0,49.6078431372549,0.0,0.0,0.0,0.0,1.9607843137254901,4.901960784313726,4.901960784313726,4.901960784313726,15.882352941176471,15.882352941176471,15.882352941176471,15.882352941176471,15.882352941176471,15.882352941176471,15.882352941176471,0.0,0.0,0.0,0.0,0.0,49.6078431372549,1.9607843137254901,1.9607843137254901,1.9607843137254901,1.9607843137254901,1.9607843137254901,1.9607843137254901,0.0,49.6078431372549,49.6078431372549,49.6078431372549,49.6078431372549,49.6078431372549,49.6078431372549,49.6078431372549,49.6078431372549,49.6078431372549,49.6078431372549,49.6078431372549,49.6078431372549,49.6078431372549,49.6078431372549,49.6078431372549,49.6078431372549,49.6078431372549,49.6078431372549,49.6078431372549,49.6078431372549,0.0,49.6078431372549,49.6078431372549,49.6078431372549,49.6078431372549,49.6078431372549,49.6078431372549,49.6078431372549,49.6078431372549,49.6078431372549,49.6078431372549,49.6078431372549,49.6078431372549,49.6078431372549,49.6078431372549,49.6078431372549,49.6078431372549,49.6078431372549,49.6078431372549,49.6078431372549,49.6078431372549,0.0,49.6078431372549,0.0,49.6078431372549,49.6078431372549,0.0,0.0,1.9607843137254901,0.0,1.9607843137254901,0.0,49.6078431372549,49.6078431372549,0.0,0.0,15.882352941176471,15.882352941176471,15.882352941176471,15.882352941176471,15.882352941176471,15.882352941176471,15.882352941176471,20.58823529411765,20.58823529411765,20.58823529411765,20.58823529411765,20.58823529411765,20.58823529411765,20.58823529411765,20.58823529411765,20.58823529411765,20.58823529411765,20.58823529411765,20.58823529411765,20.58823529411765,20.58823529411765,40.0,40.0,40.0,40.0,40.0,0.0,0.0,0.0,0.0,0.0,0.0,0.0,0.0
45.09803921568627,0.0,43.13725490196078,43.13725490196078,43.13725490196078,43.13725490196078,43.13725490196078,43.13725490196078,43.13725490196078,43.13725490196078,43.13725490196078,0.0,41.1764705882353,41.1764705882353,41.1764705882353,41.1764705882353,41.1764705882353,41.1764705882353,41.1764705882353,41.1764705882353,41.1764705882353,43.13725490196078,43.13725490196078,43.13725490196078,43.13725490196078,43.13725490196078,43.13725490196078,43.13725490196078,43.13725490196078,43.13725490196078,0.0,49.6078431372549,0.0,0.0,47.254901960784316,47.254901960784316,0.0,0.0,0.0,0.0,41.1764705882353,41.1764705882353,41.1764705882353,0.0,39.6078431372549,0.0,0.0,0.0,0.0,0.0,0.0,0.0,0.0,0.0,0.0,0.0,0.0,0.0,0.0,0.0,0.0,0.0,43.13725490196078,43.13725490196078,47.254901960784316,47.254901960784316,0.0,0.0,0.0,0.0,0.0,0.0,41.1764705882353,41.1764705882353,41.1764705882353,41.1764705882353,41.1764705882353,41.1764705882353,41.1764705882353,41.1764705882353,41.1764705882353,41.1764705882353,41.1764705882353,43.13725490196078,0.0,41.1764705882353,41.1764705882353,0.0,39.6078431372549,0.0,39.6078431372549,0.0,0.0,0.0,0.0,0.0,0.0,41.372549019607845,0.0,41.372549019607845,41.372549019607845,0.0,8.03921568627451,0.0,0.0,1.9607843137254901,4.901960784313726,0.0,0.0,0.0,0.0,49.6078431372549,0.0,0.0,0.0,0.0,0.0,0.0,0.0,0.0,1.9607843137254901,1.9607843137254901,0.0,0.0,0.0,49.01960784313725,49.01960784313725,0.0,49.01960784313725,0.0,0.0,0.0,0.0,0.0,0.0,0.0,0.0,4.901960784313726,4.901960784313726,4.901960784313726,4.901960784313726,0.0,0.0,15.882352941176471,15.882352941176471,15.882352941176471,15.882352941176471,0.0,0.0,0.0,0.0,0.0,49.6078431372549,49.6078431372549,1.9607843137254901,1.9607843137254901,0.0,49.6078431372549,49.6078431372549,1.9607843137254901,0.0,49.6078431372549,49.6078431372549,49.6078431372549,49.6078431372549,49.6078431372549,49.6078431372549,49.6078431372549,49.6078431372549,49.6078431372549,49.6078431372549,49.6078431372549,49.6078431372549,49.6078431372549,49.6078431372549,49.6078431372549,49.6078431372549,0.0,47.254901960784316,47.254901960784316,47.254901960784316,47.254901960784316,47.254901960784316,47.254901960784316,49.6078431372549,49.6078431372549,49.6078431372549,49.6078431372549,49.6078431372549,49.6078431372549,49.6078431372549,49.6078431372549,49.6078431372549,49.6078431372549,49.6078431372549,49.6078431372549,49.6078431372549,0.0,47.254901960784316,0.0,47.254901960784316,49.6078431372549,0.0,49.6078431372549,0.0,49.6078431372549,49.6078431372549,1.9607843137254901,0.0,1.9607843137254901,0.0,1.9607843137254901,0.0,49.6078431372549,49.6078431372549,49.6078431372549,49.6078431372549,0.0,15.882352941176471,15.882352941176471,15.882352941176471,15.882352941176471,15.882352941176471,15.882352941176471,20.58823529411765,20.58823529411765,20.58823529411765,20.58823529411765,20.58823529411765,20.58823529411765,20.58823529411765,20.58823529411765,20.58823529411765,20.58823529411765,20.58823529411765,20.58823529411765,20.58823529411765,20.58823529411765,40.0,40.0,40.0,40.0,40.0,0.0,0.0,0.0,26.07843137254902,0.0,0.0,26.07843137254902,32.35294117647059
45.09803921568627,45.09803921568627,45.09803921568627,45.09803921568627,45.09803921568627,35.294117647058826,0.0,43.13725490196078,43.13725490196078,43.13725490196078,43.13725490196078,43.13725490196078,0.0,41.1764705882353,41.1764705882353,41.1764705882353,41.1764705882353,41.1764705882353,0.0,41.1764705882353,41.1764705882353,43.13725490196078,43.13725490196078,43.13725490196078,43.13725490196078,43.13725490196078,43.13725490196078,43.13725490196078,0.0,45.09803921568627,45.09803921568627,45.09803921568627,49.6078431372549,0.0,0.0,47.254901960784316,0.0,0.0,4.901960784313726,41.1764705882353,41.1764705882353,4.901960784313726,41.1764705882353,0.0,0.0,43.13725490196078,1.9607843137254901,0.0,49.6078431372549,0.0,0.0,0.0,0.0,0.0,0.0,0.0,0.0,0.0,0.0,0.0,0.0,0.0,0.0,43.13725490196078,45.09803921568627,47.254901960784316,47.254901960784316,0.0,0.0,0.0,0.0,0.0,0.0,41.1764705882353,41.1764705882353,41.1764705882353,41.1764705882353,41.1764705882353,41.1764705882353,41.1764705882353,0.0,41.1764705882353,0.0,41.1764705882353,41.1764705882353,41.1764705882353,47.254901960784316,47.254901960784316,47.254901960784316,0.0,47.254901960784316,0.0,0.0,0.0,0.0,0.0,41.372549019607845,41.372549019607845,0.0,41.372549019607845,41.372549019607845,8.03921568627451,0.0,0.0,1.9607843137254901,1.9607843137254901,1.9607843137254901,0.0,0.0,0.0,0.0,49.6078431372549,0.0,0.0,0.0,0.0,0.0,0.0,0.0,0.0,0.0,0.0,0.0,0.0,0.0,40.0,40.0,0.0,0.0,0.0,0.0,0.0,0.0,0.0,0.0,0.0,0.0,0.0,4.901960784313726,4.901960784313726,8.03921568627451,0.0,0.0,8.03921568627451,8.03921568627451,8.03921568627451,8.03921568627451,8.03921568627451,0.0,0.0,0.0,49.6078431372549,49.6078431372549,49.6078431372549,49.6078431372549,1.9607843137254901,1.9607843137254901,1.9607843137254901,0.0,49.6078431372549,1.9607843137254901,47.254901960784316,49.6078431372549,49.6078431372549,49.6078431372549,0.0,49.6078431372549,49.6078431372549,49.6078431372549,49.6078431372549,0.0,49.6078431372549,0.0,49.6078431372549,49.6078431372549,49.6078431372549,0.0,47.254901960784316,47.254901960784316,47.254901960784316,47.254901960784316,47.254901960784316,47.254901960784316,47.254901960784316,49.6078431372549,49.6078431372549,0.0,49.6078431372549,49.6078431372549,49.6078431372549,49.6078431372549,49.6078431372549,49.6078431372549,49.6078431372549,49.6078431372549,49.6078431372549,49.6078431372549,0.0,47.254901960784316,47.254901960784316,47.254901960784316,47.254901960784316,47.254901960784316,47.254901960784316,0.0,47.254901960784316,49.6078431372549,1.9607843137254901,0.0,49.6078431372549,0.0,0.0,0.0,49.6078431372549,49.6078431372549,49.6078431372549,49.6078431372549,49.6078431372549,15.882352941176471,15.882352941176471,15.882352941176471,15.882352941176471,15.882352941176471,15.882352941176471,20.58823529411765,20.58823529411765,20.58823529411765,20.58823529411765,20.58823529411765,20.58823529411765,20.58823529411765,20.58823529411765,20.58823529411765,20.58823529411765,20.58823529411765,20.58823529411765,20.58823529411765,20.58823529411765,40.0,40.0,40.0,40.0,40.0,0.0,0.0,26.07843137254902,26.07843137254902,0.0,32.35294117647059,0.0,32.35294117647059
0.0,43.13725490196078,43.13725490196078,43.13725490196078,43.13725490196078,43.13725490196078,43.13725490196078,43.13725490196078,43.13725490196078,43.13725490196078,43.13725490196078,43.13725490196078,0.0,41.1764705882353,41.1764705882353,41.1764705882353,41.1764705882353,41.1764705882353,43.13725490196078,0.0,43.13725490196078,43.13725490196078,43.13725490196078,43.13725490196078,43.13725490196078,43.13725490196078,43.13725490196078,0.0,45.09803921568627,45.09803921568627,45.09803921568627,45.09803921568627,0.0,0.0,47.254901960784316,47.254901960784316,0.0,0.0,0.0,0.0,39.6078431372549,39.6078431372549,41.1764705882353,0.0,43.13725490196078,43.13725490196078,1.9607843137254901,1.9607843137254901,0.0,0.0,0.0,0.0,0.0,0.0,0.0,0.0,0.0,0.0,0.0,0.0,45.09803921568627,45.09803921568627,0.0,43.13725490196078,43.13725490196078,43.13725490196078,0.0,0.0,0.0,0.0,0.0,0.0,0.0,0.0,0.0,0.0,41.1764705882353,41.1764705882353,41.1764705882353,41.1764705882353,41.1764705882353,41.1764705882353,41.1764705882353,41.1764705882353,41.1764705882353,41.1764705882353,47.254901960784316,47.254901960784316,11.76470588235294,0.0,15.882352941176471,0.0,0.0,0.0,0.0,0.0,41.372549019607845,41.372549019607845,41.372549019607845,41.372549019607845,41.372549019607845,8.03921568627451,0.0,0.0,1.9607843137254901,1.9607843137254901,1.9607843137254901,0.0,0.0,0.0,0.0,0.0,0.0,0.0,0.0,0.0,0.0,0.0,0.0,0.0,0.0,0.0,0.0,0.0,0.0,0.0,0.0,0.0,0.0,0.0,0.0,0.0,0.0,0.0,0.0,0.0,0.0,0.0,4.901960784313726,4.901960784313726,8.03921568627451,8.03921568627451,8.03921568627451,8.03921568627451,8.03921568627451,8.03921568627451,8.03921568627451,8.03921568627451,8.03921568627451,0.0,0.0,0.0,49.6078431372549,49.6078431372549,49.6078431372549,49.6078431372549,49.6078431372549,49.6078431372549,49.6078431372549,49.6078431372549,49.6078431372549,49.6078431372549,49.6078431372549,49.6078431372549,49.6078431372549,49.6078431372549,49.6078431372549,49.6078431372549,49.6078431372549,49.6078431372549,49.6078431372549,49.6078431372549,49.6078431372549,0.0,47.254901960784316,0.0,47.254901960784316,47.254901960784316,47.254901960784316,47.254901960784316,47.254901960784316,47.254901960784316,47.254901960784316,47.254901960784316,47.254901960784316,49.6078431372549,49.6078431372549,49.6078431372549,49.6078431372549,49.6078431372549,49.6078431372549,49.6078431372549,49.6078431372549,49.6078431372549,49.6078431372549,49.6078431372549,49.6078431372549,49.6078431372549,49.6078431372549,49.6078431372549,0.0,47.254901960784316,47.254901960784316,47.254901960784316,0.0,47.254901960784316,0.0,47.254901960784316,47.254901960784316,0.0,1.9607843137254901,0.0,49.6078431372549,49.6078431372549,49.6078431372549,49.6078431372549,49.6078431372549,49.6078431372549,49.6078431372549,49.6078431372549,49.6078431372549,15.882352941176471,15.882352941176471,20.58823529411765,20.58823529411765,20.58823529411765,20.58823529411765,20.58823529411765,20.58823529411765,20.58823529411765,20.58823529411765,20.58823529411765,20.58823529411765,20.58823529411765,20.58823529411765,20.58823529411765,0.0,40.0,40.0,40.0,40.0,40.0,40.0,0.0,0.0,26.07843137254902,26.07843137254902,0.0,26.07843137254902,0.0,32.35294117647059
0.0,35.294117647058826,35.294117647058826,36.666666666666664,38.03921568627451,43.13725490196078,43.13725490196078,43.13725490196078,43.13725490196078,43.13725490196078,43.13725490196078,43.13725490196078,0.0,41.1764705882353,41.1764705882353,41.1764705882353,41.1764705882353,41.1764705882353,43.13725490196078,43.13725490196078,0.0,0.0,0.0,0.0,43.13725490196078,45.09803921568627,45.09803921568627,0.0,0.0,0.0,45.09803921568627,45.09803921568627,45.09803921568627,0.0,47.254901960784316,0.0,45.09803921568627,0.0,4.901960784313726,0.0,39.6078431372549,39.6078431372549,39.6078431372549,39.6078431372549,43.13725490196078,43.13725490196078,1.9607843137254901,0.0,49.6078431372549,49.6078431372549,0.0,0.0,0.0,0.0,0.0,0.0,0.0,0.0,0.0,0.0,45.09803921568627,45.09803921568627,45.09803921568627,0.0,43.13725490196078,43.13725490196078,0.0,0.0,0.0,0.0,36.666666666666664,41.1764705882353,41.1764705882353,43.13725490196078,43.13725490196078,0.0,43.13725490196078,0.0,41.1764705882353,0.0,41.1764705882353,41.1764705882353,41.1764705882353,41.1764705882353,41.1764705882353,41.1764705882353,47.254901960784316,47.254901960784316,15.882352941176471,15.882352941176471,15.882352941176471,15.882352941176471,0.0,0.0,0.0,0.0,41.372549019607845,41.372549019607845,41.372549019607845,41.372549019607845,49.6078431372549,1.9607843137254901,1.9607843137254901,1.9607843137254901,1.9607843137254901,1.9607843137254901,1.9607843137254901,1.9607843137254901,0.0,0.0,0.0,0.0,0.0,0.0,0.0,0.0,0.0,0.0,0.0,0.0,0.0,0.0,0.0,0.0,0.0,0.0,0.0,0.0,0.0,0.0,0.0,0.0,0.0,0.0,0.0,0.0,0.0,0.0,4.901960784313726,4.901960784313726,8.03921568627451,8.03921568627451,8.03921568627451,8.03921568627451,8.03921568627451,8.03921568627451,8.03921568627451,8.03921568627451,0.0,0.0,0.0,49.6078431372549,49.6078431372549,49.6078431372549,49.6078431372549,49.6078431372549,49.6078431372549,49.6078431372549,49.6078431372549,49.6078431372549,0.0,47.254901960784316,47.254901960784316,49.6078431372549,49.6078431372549,49.6078431372549,49.6078431372549,49.6078431372549,49.6078431372549,49.6078431372549,49.6078431372549,49.6078431372549,49.6078431372549,49.6078431372549,0.0,0.0,47.254901960784316,47.254901960784316,47.254901960784316,47.254901960784316,47.254901960784316,47.254901960784316,47.254901960784316,47.254901960784316,47.254901960784316,47.254901960784316,0.0,47.254901960784316,0.0,49.6078431372549,49.6078431372549,0.0,49.6078431372549,49.6078431372549,49.6078431372549,0.0,47.254901960784316,47.254901960784316,47.254901960784316,47.254901960784316,47.254901960784316,47.254901960784316,47.254901960784316,47.254901960784316,47.254901960784316,0.0,47.254901960784316,0.0,47.254901960784316,0.0,0.0,1.9607843137254901,0.0,49.6078431372549,0.0,49.6078431372549,49.6078431372549,49.6078431372549,49.6078431372549,49.6078431372549,49.6078431372549,0.0,49.6078431372549,20.58823529411765,20.58823529411765,20.58823529411765,20.58823529411765,45.09803921568627,20.58823529411765,20.58823529411765,20.58823529411765,20.58823529411765,20.58823529411765,20.58823529411765,20.58823529411765,20.58823529411765,20.58823529411765,20.58823529411765,40.0,40.0,40.0,0.0,0.0,26.07843137254902,26.07843137254902,26.07843137254902,26.07843137254902,26.07843137254902,26.07843137254902,0.0,32.35294117647059
0.0,0.0,38.03921568627451,39.6078431372549,41.1764705882353,35.294117647058826,0.0,43.13725490196078,43.13725490196078,0.0,43.13725490196078,43.13725490196078,0.0,41.1764705882353,43.13725490196078,43.13725490196078,43.13725490196078,43.13725490196078,43.13725490196078,45.09803921568627,45.09803921568627,0.0,0.0,0.0,45.09803921568627,45.09803921568627,45.09803921568627,0.0,45.09803921568627,45.09803921568627,45.09803921568627,45.09803921568627,45.09803921568627,45.09803921568627,45.09803921568627,0.0,45.09803921568627,4.901960784313726,4.901960784313726,0.0,39.6078431372549,39.6078431372549,39.6078431372549,39.6078431372549,43.13725490196078,0.0,1.9607843137254901,0.0,49.6078431372549,0.0,0.0,0.0,0.0,0.0,0.0,0.0,0.0,38.03921568627451,38.03921568627451,43.13725490196078,0.0,43.13725490196078,43.13725490196078,43.13725490196078,45.09803921568627,45.09803921568627,45.09803921568627,0.0,0.0,0.0,41.1764705882353,41.1764705882353,41.1764705882353,41.1764705882353,43.13725490196078,0.0,43.13725490196078,0.0,41.1764705882353,43.13725490196078,43.13725490196078,0.0,41.1764705882353,41.1764705882353,41.1764705882353,0.0,0.0,0.0,0.0,15.882352941176471,15.882352941176471,15.882352941176471,15.882352941176471,15.882352941176471,15.882352941176471,15.882352941176471,15.882352941176471,0.0,0.0,0.0,0.0,1.9607843137254901,1.9607843137254901,1.9607843137254901,1.9607843137254901,1.9607843137254901,1.9607843137254901,1.9607843137254901,0.0,49.6078431372549,49.6078431372549,0.0,0.0,0.0,0.0,0.0,0.0,0.0,47.84313725490196,0.0,0.0,0.0,0.0,0.0,0.0,0.0,0.0,0.0,0.0,0.0,0.0,0.0,0.0,0.0,0.0,0.0,0.0,0.0,0.0,4.901960784313726,4.901960784313726,8.03921568627451,8.03921568627451,8.03921568627451,8.03921568627451,8.03921568627451,8.03921568627451,8.03921568627451,8.03921568627451,0.0,0.0,0.0,49.6078431372549,49.6078431372549,0.0,47.254901960784316,47.254901960784316,47.254901960784316,47.254901960784316,47.254901960784316,47.254901960784316,47.254901960784316,47.254901960784316,0.0,0.0,49.6078431372549,49.6078431372549,49.6078431372549,0.0,49.6078431372549,49.6078431372549,49.6078431372549,49.6078431372549,49.6078431372549,49.6078431372549,0.0,47.254901960784316,47.254901960784316,47.254901960784316,47.254901960784316,47.254901960784316,47.254901960784316,47.254901960784316,47.254901960784316,47.254901960784316,47.254901960784316,47.254901960784316,47.254901960784316,0.0,47.254901960784316,49.6078431372549,49.6078431372549,49.6078431372549,0.0,47.254901960784316,47.254901960784316,47.254901960784316,47.254901960784316,47.254901960784316,47.254901960784316,47.254901960784316,47.254901960784316,47.254901960784316,47.254901960784316,47.254901960784316,47.254901960784316,47.254901960784316,0.0,1.9607843137254901,1.9607843137254901,0.0,0.0,0.0,0.0,49.6078431372549,49.6078431372549,4.901960784313726,4.901960784313726,4.901960784313726,4.901960784313726,0.0,0.0,49.6078431372549,0.0,20.58823529411765,0.0,45.09803921568627,45.09803921568627,45.09803921568627,45.09803921568627,20.58823529411765,20.58823529411765,20.58823529411765,20.58823529411765,20.58823529411765,20.58823529411765,0.0,0.0,40.0,40.0,40.0,1.9607843137254901,1.9607843137254901,26.07843137254902,26.07843137254902,26.07843137254902,26.07843137254902,26.07843137254902,0.0,0.0,40.0
0.0,0.0,0.0,41.1764705882353,38.03921568627451,41.1764705882353,41.1764705882353,41.1764705882353,41.1764705882353,43.13725490196078,43.13725490196078,43.13725490196078,43.13725490196078,0.0,41.1764705882353,43.13725490196078,43.13725490196078,43.13725490196078,45.09803921568627,45.09803921568627,0.0,0.0,45.09803921568627,45.09803921568627,45.09803921568627,0.0,45.09803921568627,45.09803921568627,45.09803921568627,0.0,45.09803921568627,45.09803921568627,45.09803921568627,45.09803921568627,45.09803921568627,45.09803921568627,45.09803921568627,4.901960784313726,4.901960784313726,0.0,39.6078431372549,41.1764705882353,0.0,39.6078431372549,0.0,0.0,1.9607843137254901,0.0,49.6078431372549,49.6078431372549,0.0,0.0,0.0,0.0,0.0,0.0,0.0,38.03921568627451,38.03921568627451,45.09803921568627,0.0,45.09803921568627,0.0,43.13725490196078,43.13725490196078,0.0,43.13725490196078,43.13725490196078,0.0,0.0,41.1764705882353,41.1764705882353,41.1764705882353,41.1764705882353,41.1764705882353,0.0,0.0,43.13725490196078,0.0,43.13725490196078,43.13725490196078,43.13725490196078,43.13725490196078,43.13725490196078,0.0,0.0,0.0,0.0,0.0,0.0,20.58823529411765,0.0,0.0,41.1764705882353,0.0,41.1764705882353,15.882352941176471,41.1764705882353,0.0,49.6078431372549,0.0,0.0,1.9607843137254901,0.0,1.9607843137254901,1.9607843137254901,0.0,49.6078431372549,49.6078431372549,49.6078431372549,0.0,0.0,0.0,45.09803921568627,45.09803921568627,0.0,0.0,0.0,0.0,0.0,0.0,29.6078431372549,0.0,0.0,0.0,0.0,0.0,0.0,0.0,0.0,0.0,0.0,0.0,0.0,0.0,0.0,0.0,0.0,4.901960784313726,0.0,4.901960784313726,8.03921568627451,8.03921568627451,8.03921568627451,8.03921568627451,8.03921568627451,8.03921568627451,8.03921568627451,8.03921568627451,0.0,0.0,0.0,49.6078431372549,49.6078431372549,0.0,47.254901960784316,47.254901960784316,47.254901960784316,47.254901960784316,47.254901960784316,47.254901960784316,47.254901960784316,47.254901960784316,0.0,0.0,47.254901960784316,0.0,0.0,47.254901960784316,0.0,49.6078431372549,49.6078431372549,49.6078431372549,49.6078431372549,49.6078431372549,0.0,47.254901960784316,47.254901960784316,47.254901960784316,47.254901960784316,47.254901960784316,47.254901960784316,47.254901960784316,47.254901960784316,47.254901960784316,47.254901960784316,47.254901960784316,47.254901960784316,47.254901960784316,0.0,49.6078431372549,49.6078431372549,49.6078431372549,0.0,47.254901960784316,47.254901960784316,47.254901960784316,47.254901960784316,47.254901960784316,47.254901960784316,47.254901960784316,47.254901960784316,47.254901960784316,47.254901960784316,47.254901960784316,47.254901960784316,47.254901960784316,49.6078431372549,11.76470588235294,11.76470588235294,0.0,0.0,0.0,0.0,0.0,4.901960784313726,4.901960784313726,4.901960784313726,4.901960784313726,4.901960784313726,4.901960784313726,4.901960784313726,0.0,0.0,0.0,0.0,47.254901960784316,47.254901960784316,0.0,45.09803921568627,45.09803921568627,0.0,20.58823529411765,0.0,0.0,0.0,0.0,0.0,40.0,40.0,40.0,0.0,1.9607843137254901,26.07843137254902,26.07843137254902,26.07843137254902,26.07843137254902,26.07843137254902,26.07843137254902,0.0,40.0
0.0,0.0,0.0,0.0,0.0,35.294117647058826,35.294117647058826,0.0,41.1764705882353,41.1764705882353,43.13725490196078,43.13725490196078,43.13725490196078,43.13725490196078,43.13725490196078,45.09803921568627,0.0,43.13725490196078,45.09803921568627,45.09803921568627,45.09803921568627,0.0,45.09803921568627,45.09803921568627,45.09803921568627,0.0,45.09803921568627,0.0,45.09803921568627,0.0,45.09803921568627,45.09803921568627,45.09803921568627,0.0,45.09803921568627,45.09803921568627,45.09803921568627,0.0,4.901960784313726,0.0,39.6078431372549,39.6078431372549,39.6078431372549,39.6078431372549,39.6078431372549,0.0,0.0,0.0,0.0,0.0,0.0,0.0,35.294117647058826,23.52941176470588,23.52941176470588,32.35294117647059,45.09803921568627,45.09803921568627,45.09803921568627,45.09803921568627,45.09803921568627,45.09803921568627,45.09803921568627,0.0,45.09803921568627,0.0,0.0,0.0,0.0,0.0,0.0,41.1764705882353,41.1764705882353,41.1764705882353,41.1764705882353,41.1764705882353,43.13725490196078,43.13725490196078,43.13725490196078,43.13725490196078,43.13725490196078,43.13725490196078,0.0,0.0,0.0,0.0,0.0,0.0,0.0,0.0,0.0,0.0,38.03921568627451,38.03921568627451,0.0,0.0,1.9607843137254901,1.9607843137254901,0.0,0.0,47.254901960784316,49.6078431372549,49.6078431372549,49.6078431372549,49.6078431372549,49.6078431372549,49.6078431372549,49.6078431372549,49.6078431372549,49.6078431372549,0.0,0.0,0.0,0.0,0.0,0.0,0.0,0.0,0.0,0.0,0.0,29.6078431372549,29.6078431372549,29.6078431372549,29.6078431372549,0.0,0.0,0.0,0.0,0.0,0.0,0.0,0.0,0.0,0.0,32.35294117647059,0.0,0.0,0.0,0.0,4.901960784313726,0.0,4.901960784313726,4.901960784313726,8.03921568627451,8.03921568627451,8.03921568627451,8.03921568627451,8.03921568627451,0.0,0.0,0.0,49.6078431372549,49.6078431372549,49.6078431372549,0.0,47.254901960784316,47.254901960784316,47.254901960784316,47.254901960784316,0.0,0.0,0.0,0.0,0.0,0.0,45.09803921568627,45.09803921568627,49.6078431372549,0.0,49.6078431372549,49.6078431372549,49.6078431372549,49.6078431372549,49.6078431372549,0.0,47.254901960784316,47.254901960784316,47.254901960784316,47.254901960784316,47.254901960784316,47.254901960784316,47.254901960784316,47.254901960784316,47.254901960784316,47.254901960784316,47.254901960784316,47.254901960784316,47.254901960784316,49.6078431372549,0.0,49.6078431372549,49.6078431372549,49.6078431372549,49.6078431372549,0.0,47.254901960784316,47.254901960784316,47.254901960784316,47.254901960784316,47.254901960784316,47.254901960784316,47.254901960784316,47.254901960784316,47.254901960784316,0.0,49.6078431372549,1.9607843137254901,1.9607843137254901,11.76470588235294,4.901960784313726,0.0,0.0,0.0,0.0,4.901960784313726,4.901960784313726,4.901960784313726,0.0,1.9607843137254901,1.9607843137254901,1.9607843137254901,1.9607843137254901,1.9607843137254901,1.9607843137254901,0.0,0.0,0.0,45.09803921568627,45.09803921568627,47.254901960784316,0.0,0.0,0.0,0.0,0.0,0.0,0.0,40.0,0.0,0.0,0.0,1.9607843137254901,1.9607843137254901,26.07843137254902,26.07843137254902,26.07843137254902,26.07843137254902,0.0,0.0,0.0
0.0,35.294117647058826,35.294117647058826,0.0,35.294117647058826,35.294117647058826,43.13725490196078,43.13725490196078,43.13725490196078,43.13725490196078,43.13725490196078,43.13725490196078,43.13725490196078,43.13725490196078,45.09803921568627,0.0,0.0,45.09803921568627,45.09803921568627,45.09803921568627,45.09803921568627,45.09803921568627,45.09803921568627,45.09803921568627,45.09803921568627,45.09803921568627,45.09803921568627,0.0,0.0,0.0,0.0,45.09803921568627,0.0,0.0,0.0,0.0,0.0,43.13725490196078,4.901960784313726,0.0,39.6078431372549,39.6078431372549,39.6078431372549,39.6078431372549,39.6078431372549,0.0,0.0,0.0,0.0,0.0,0.0,0.0,35.294117647058826,23.52941176470588,36.666666666666664,45.09803921568627,26.07843137254902,45.09803921568627,45.09803921568627,45.09803921568627,45.09803921568627,45.09803921568627,45.09803921568627,45.09803921568627,0.0,43.13725490196078,0.0,0.0,0.0,0.0,0.0,0.0,0.0,0.0,0.0,0.0,43.13725490196078,43.13725490196078,43.13725490196078,43.13725490196078,43.13725490196078,43.13725490196078,0.0,0.0,49.6078431372549,0.0,0.0,0.0,0.0,0.0,0.0,0.0,0.0,0.0,0.0,39.6078431372549,39.6078431372549,0.0,47.254901960784316,1.9607843137254901,1.9607843137254901,0.0,0.0,49.6078431372549,49.6078431372549,49.6078431372549,49.6078431372549,29.6078431372549,29.6078431372549,29.6078431372549,29.6078431372549,29.6078431372549,0.0,45.09803921568627,45.09803921568627,0.0,0.0,0.0,0.0,0.0,29.6078431372549,29.6078431372549,29.6078431372549,0.0,0.0,0.0,0.0,0.0,0.0,0.0,0.0,0.0,0.0,0.0,32.35294117647059,32.35294117647059,32.35294117647059,0.0,0.0,0.0,0.0,15.882352941176471,15.882352941176471,4.901960784313726,0.0,8.03921568627451,0.0,8.03921568627451,8.03921568627451,0.0,0.0,0.0,49.6078431372549,49.6078431372549,0.0,47.254901960784316,47.254901960784316,47.254901960784316,47.254901960784316,0.0,0.0,0.0,0.0,0.0,0.0,45.09803921568627,45.09803921568627,47.254901960784316,47.254901960784316,47.254901960784316,47.254901960784316,47.254901960784316,47.254901960784316,49.6078431372549,0.0,47.254901960784316,47.254901960784316,47.254901960784316,47.254901960784316,47.254901960784316,47.254901960784316,47.254901960784316,47.254901960784316,47.254901960784316,47.254901960784316,47.254901960784316,47.254901960784316,47.254901960784316,49.6078431372549,0.0,49.6078431372549,0.0,49.6078431372549,49.6078431372549,49.6078431372549,0.0,47.254901960784316,47.254901960784316,47.254901960784316,47.254901960784316,47.254901960784316,47.254901960784316,47.254901960784316,47.254901960784316,47.254901960784316,0.0,49.6078431372549,1.9607843137254901,8.03921568627451,8.03921568627451,0.0,8.03921568627451,8.03921568627451,0.0,0.0,0.0,4.901960784313726,4.901960784313726,4.901960784313726,0.0,0.0,0.0,1.9607843137254901,1.9607843137254901,0.0,0.0,47.254901960784316,47.254901960784316,47.254901960784316,47.254901960784316,0.0,47.254901960784316,47.254901960784316,0.0,0.0,0.0,0.0,0.0,0.0,0.0,0.0,0.0,1.9607843137254901,1.9607843137254901,26.07843137254902,26.07843137254902,26.07843137254902,26.07843137254902,0.0,26.07843137254902,32.35294117647059
0.0,36.666666666666664,0.0,36.666666666666664,0.0,35.294117647058826,43.13725490196078,43.13725490196078,43.13725490196078,43.13725490196078,43.13725490196078,43.13725490196078,43.13725490196078,43.13725490196078,45.09803921568627,0.0,45.09803921568627,45.09803921568627,45.09803921568627,45.09803921568627,45.09803921568627,45.09803921568627,45.09803921568627,45.09803921568627,45.09803921568627,45.09803921568627,0.0,0.0,0.0,0.0,0.0,0.0,0.0,0.0,0.0,38.03921568627451,38.03921568627451,0.0,4.901960784313726,4.901960784313726,4.901960784313726,39.6078431372549,39.6078431372549,39.6078431372549,39.6078431372549,0.0,0.0,0.0,0.0,0.0,0.0,0.0,0.0,23.52941176470588,23.52941176470588,0.0,23.52941176470588,0.0,9.803921568627452,45.09803921568627,45.09803921568627,45.09803921568627,45.09803921568627,45.09803921568627,0.0,0.0,0.0,0.0,0.0,0.0,0.0,0.0,0.0,0.0,0.0,0.0,43.13725490196078,43.13725490196078,43.13725490196078,43.13725490196078,43.13725490196078,43.13725490196078,43.13725490196078,49.6078431372549,49.6078431372549,0.0,0.0,0.0,0.0,0.0,0.0,0.0,39.6078431372549,0.0,0.0,39.6078431372549,39.6078431372549,41.1764705882353,0.0,47.254901960784316,1.9607843137254901,1.9607843137254901,1.9607843137254901,0.0,49.6078431372549,29.6078431372549,29.6078431372549,29.6078431372549,29.6078431372549,29.6078431372549,29.6078431372549,29.6078431372549,45.09803921568627,45.09803921568627,47.84313725490196,47.84313725490196,47.84313725490196,29.6078431372549,29.6078431372549,0.0,29.6078431372549,29.6078431372549,29.6078431372549,0.0,0.0,0.0,0.0,0.0,0.0,0.0,0.0,0.0,0.0,0.0,0.0,32.35294117647059,32.35294117647059,32.35294117647059,0.0,0.0,0.0,0.0,11.76470588235294,0.0,0.0,8.03921568627451,11.76470588235294,0.0,8.03921568627451,0.0,0.0,0.0,49.6078431372549,0.0,0.0,47.254901960784316,47.254901960784316,0.0,0.0,0.0,0.0,0.0,0.0,45.09803921568627,0.0,45.09803921568627,45.09803921568627,47.254901960784316,47.254901960784316,47.254901960784316,47.254901960784316,47.254901960784316,47.254901960784316,47.254901960784316,47.254901960784316,47.254901960784316,47.254901960784316,47.254901960784316,47.254901960784316,47.254901960784316,47.254901960784316,47.254901960784316,47.254901960784316,47.254901960784316,47.254901960784316,47.254901960784316,47.254901960784316,47.254901960784316,0.0,45.09803921568627,45.09803921568627,0.0,45.09803921568627,45.09803921568627,0.0,47.254901960784316,47.254901960784316,47.254901960784316,47.254901960784316,47.254901960784316,47.254901960784316,47.254901960784316,47.254901960784316,47.254901960784316,47.254901960784316,0.0,1.9607843137254901,1.9607843137254901,0.0,4.901960784313726,8.03921568627451,8.03921568627451,8.03921568627451,0.0,0.0,0.0,0.0,49.6078431372549,4.901960784313726,0.0,0.0,4.901960784313726,0.0,1.9607843137254901,0.0,0.0,47.254901960784316,49.6078431372549,49.6078431372549,0.0,49.6078431372549,49.6078431372549,4.901960784313726,0.0,0.0,0.0,0.0,0.0,0.0,0.0,0.0,0.0,0.0,1.9607843137254901,26.07843137254902,26.07843137254902,26.07843137254902,26.07843137254902,0.0,26.07843137254902,32.35294117647059
36.666666666666664,36.666666666666664,0.0,36.666666666666664,0.0,35.294117647058826,35.294117647058826,36.666666666666664,0.0,35.294117647058826,43.13725490196078,43.13725490196078,43.13725490196078,43.13725490196078,45.09803921568627,0.0,45.09803921568627,45.09803921568627,45.09803921568627,45.09803921568627,45.09803921568627,45.09803921568627,45.09803921568627,45.09803921568627,45.09803921568627,45.09803921568627,45.09803921568627,45.09803921568627,45.09803921568627,0.0,47.254901960784316,0.0,0.0,0.0,0.0,0.0,38.03921568627451,38.03921568627451,4.901960784313726,4.901960784313726,4.901960784313726,39.6078431372549,39.6078431372549,39.6078431372549,1.9607843137254901,4.901960784313726,8.03921568627451,0.0,4.901960784313726,0.0,0.0,0.0,0.0,0.0,0.0,0.0,0.0,45.09803921568627,9.803921568627452,9.803921568627452,45.09803921568627,45.09803921568627,45.09803921568627,45.09803921568627,0.0,0.0,0.0,0.0,0.0,0.0,0.0,0.0,0.0,0.0,0.0,0.0,43.13725490196078,43.13725490196078,43.13725490196078,43.13725490196078,43.13725490196078,43.13725490196078,43.13725490196078,0.0,0.0,0.0,0.0,0.0,0.0,0.0,0.0,0.0,0.0,39.6078431372549,39.6078431372549,0.0,39.6078431372549,39.6078431372549,0.0,47.254901960784316,1.9607843137254901,1.9607843137254901,1.9607843137254901,0.0,29.6078431372549,29.6078431372549,29.6078431372549,29.6078431372549,29.6078431372549,29.6078431372549,29.6078431372549,0.0,45.09803921568627,45.09803921568627,0.0,0.0,29.6078431372549,29.6078431372549,29.6078431372549,29.6078431372549,29.6078431372549,29.6078431372549,29.6078431372549,29.6078431372549,29.6078431372549,0.0,0.0,0.0,0.0,0.0,0.0,0.0,0.0,0.0,0.0,32.35294117647059,32.35294117647059,0.0,0.0,0.0,35.294117647058826,15.882352941176471,15.882352941176471,0.0,0.0,11.76470588235294,11.76470588235294,0.0,0.0,0.0,0.0,49.6078431372549,0.0,0.0,0.0,0.0,47.254901960784316,47.254901960784316,0.0,0.0,0.0,45.09803921568627,45.09803921568627,45.09803921568627,45.09803921568627,45.09803921568627,45.09803921568627,45.09803921568627,47.254901960784316,47.254901960784316,47.254901960784316,47.254901960784316,0.0,47.254901960784316,47.254901960784316,47.254901960784316,47.254901960784316,47.254901960784316,47.254901960784316,47.254901960784316,47.254901960784316,47.254901960784316,47.254901960784316,47.254901960784316,47.254901960784316,47.254901960784316,47.254901960784316,47.254901960784316,47.254901960784316,0.0,45.09803921568627,45.09803921568627,45.09803921568627,45.09803921568627,0.0,47.254901960784316,47.254901960784316,47.254901960784316,47.254901960784316,47.254901960784316,47.254901960784316,47.254901960784316,47.254901960784316,47.254901960784316,47.254901960784316,0.0,0.0,1.9607843137254901,4.901960784313726,8.03921568627451,8.03921568627451,8.03921568627451,0.0,0.0,0.0,0.0,4.901960784313726,0.0,4.901960784313726,0.0,4.901960784313726,4.901960784313726,0.0,0.0,0.0,47.254901960784316,0.0,47.254901960784316,49.6078431372549,0.0,47.254901960784316,49.6078431372549,0.0,0.0,0.0,0.0,0.0,0.0,0.0,0.0,0.0,0.0,49.6078431372549,1.9607843137254901,0.0,49.6078431372549,26.07843137254902,26.07843137254902,26.07843137254902,26.07843137254902,32.35294117647059
