0,0,0,0,0,0,0,0,0,0,0,0,0,0,0,0,0,0,0,0,0,0,0,0,0,0,0,0,0,0,0,0,0,0,0,0,0,168,0,0,0,0,0,168,168,168,0,0,174,174,174,174,180,180,180,180,180,0,187,0,194,194,194,194,194,194,194,194,194,194,194,0,210,0,0,0,194,194,210,210,210,210,210,210,210,210,210,230,0,0,10,10,10,10,0,0,0,0,0,10,10,10,10,10,10,10,10,10,10,10,10,25,25,25,25,25,41,0,41,60,60,60,60,60,60,60,60,60,60,60,60,60,60,60,60,60,60,60,60,60,60,60,60,81,81,0,60,60,60,60,60,60,60,60,60,60,60,60,60,60,60,60,60,60,60,60,60,60,60,81,81,81,81,81,81,81,81,81,81,105,105,105,105,198,198,198,198,41,41,41,41,41,41,41,0,0,0,0,0,0,0,0,0,81,81,81,81,81,81,81,81,81,81,81,81,81,81,81,81,81,81,81,81,81,81,81,81,81,81,81,105,105,105,105,105,0,0,204,0,0,0,0,0,105,0,81,81,81,81,81,81,81,81,81,81,81,81,81,105,105,105,105,105,105,105,105,105,105,105,105,105,105,105,105,105,105,0,105,105,105,105,0,81,81,81,81,81,81,81,81,81,81,81,0,105,105,105,105,105,105,0,0,105,105,0,105,105,105,105,105,105,105,105,105,105,105,105,105,105,105,0,81,81,81,81,81,81,81,81,81,81,81,81,81,81,81,81,81,81,0,81,81,81,81,0,81,81,81,81,0,81,81,81,81,105,0,81,81,81,81,81,81,81,81,81,81,81,81,81,81,81,81,81,81,81,81,81,105,0,105,0,0,0,0,0,0,0,0,0,0,0,0,0,0,0,0,0,0,0,0
0,0,0,0,0,0,0,0,0,0,0,0,0,0,0,0,0,0,0,0,0,0,0,0,0,0,0,0,0,0,0,0,0,0,0,0,0,0,0,0,0,0,0,168,168,0,0,0,174,174,0,180,180,180,180,180,180,194,0,194,194,194,194,194,194,194,194,194,194,0,194,180,0,210,210,0,0,210,210,210,210,210,210,0,210,220,0,230,0,0,10,10,0,0,0,0,0,0,253,10,10,10,10,10,10,10,10,10,10,10,10,25,25,25,25,25,41,41,60,60,60,60,60,60,60,60,60,60,60,60,60,60,60,60,60,60,60,60,60,60,60,60,60,81,81,81,0,60,60,60,60,60,60,60,60,60,60,60,60,60,60,60,60,60,60,60,60,60,60,81,81,81,81,81,81,81,81,81,81,105,105,0,105,105,241,0,0,41,41,41,41,0,0,0,0,0,0,0,0,0,0,0,81,81,81,81,81,81,81,81,81,81,81,81,81,81,81,81,81,81,81,81,81,81,81,81,81,81,81,81,105,0,81,105,105,0,0,204,204,0,0,0,105,105,0,81,81,81,81,81,81,81,81,81,81,81,81,81,105,105,105,105,105,105,105,105,105,105,105,105,105,105,105,105,105,105,0,81,105,105,105,105,0,81,81,81,81,81,81,81,81,81,81,81,105,105,105,105,105,133,133,0,0,0,0,0,0,105,105,105,105,105,105,105,105,105,105,105,105,105,0,81,81,81,81,81,81,81,81,81,81,81,81,81,81,0,81,0,81,81,81,81,0,60,60,81,0,81,81,0,81,81,81,81,105,0,81,81,81,81,81,81,81,81,81,81,81,81,81,81,81,81,81,81,81,81,105,105,105,0,0,0,0,0,0,0,0,0,0,0,0,0,0,0,0,0,0,0,0,0
0,0,0,0,0,0,0,0,0,0,0,0,0,0,0,0,0,0,0,0,0,0,0,0,0,0,0,0,0,0,0,0,0,0,0,0,0,0,0,168,0,168,0,187,0,0,0,174,0,180,180,180,180,0,180,180,194,194,194,194,0,194,194,194,194,194,194,194,0,0,180,180,180,220,0,210,210,210,0,202,202,210,0,220,220,0,210,220,0,0,10,10,10,0,0,0,0,0,10,10,10,10,10,10,10,10,10,10,10,10,10,25,25,25,41,41,41,41,60,60,60,60,60,60,60,60,60,60,60,60,60,60,60,60,60,60,60,60,60,60,60,60,60,60,81,0,0,0,0,60,60,60,60,60,60,60,81,81,81,81,0,60,60,60,60,60,60,0,81,81,81,81,81,81,81,81,81,81,81,81,105,105,227,198,198,0,0,0,0,0,41,0,0,0,0,0,0,0,0,0,0,0,81,81,81,81,81,81,81,81,81,81,81,81,81,81,81,81,81,81,81,81,81,81,81,81,81,81,81,81,105,0,81,105,0,0,0,204,0,0,0,0,0,105,0,81,81,81,81,81,81,81,81,81,81,81,81,81,105,105,105,105,105,105,105,105,105,105,105,105,105,105,105,105,105,0,105,105,105,105,105,105,0,81,81,81,81,81,81,81,81,81,81,81,105,105,105,105,133,133,133,0,105,105,0,0,0,105,105,105,105,105,105,105,105,105,105,105,105,105,0,0,81,81,81,81,81,81,81,81,81,81,81,0,105,0,105,105,105,0,81,0,60,0,60,0,81,0,81,81,81,81,0,81,0,0,81,81,81,81,81,81,81,81,81,81,81,81,81,81,81,81,81,105,0,81,105,105,105,105,0,0,0,0,0,0,0,0,0,0,0,0,0,0,0,0,0,0,0,0
0,0,0,0,0,0,0,0,0,0,0,0,0,0,0,0,0,0,0,0,0,0,0,0,0,0,0,0,0,0,0,0,0,0,0,0,0,0,0,0,0,0,0,0,187,0,0,0,0,180,0,174,180,0,174,180,0,194,194,0,194,194,194,194,194,194,194,0,0,180,180,180,180,220,220,0,220,220,220,220,0,0,202,210,210,220,220,220,0,0,0,10,10,0,0,0,0,0,10,10,10,10,10,10,10,10,10,10,10,10,25,25,0,41,41,41,41,41,60,60,60,60,60,60,60,60,60,60,60,60,60,60,60,60,60,60,60,60,60,60,60,0,0,81,0,0,0,0,0,81,81,0,60,0,0,81,81,81,81,81,81,81,0,60,0,81,0,81,81,81,81,81,81,81,81,81,81,81,0,81,105,227,227,0,198,198,0,0,0,0,0,0,0,0,0,0,0,0,0,0,0,0,81,81,81,81,81,81,81,81,81,81,81,81,81,81,81,81,81,81,81,81,81,81,81,81,81,81,81,81,105,0,81,81,0,0,0,0,0,0,0,0,0,105,0,81,81,81,81,81,81,81,81,81,81,81,81,81,105,105,0,105,105,105,105,105,105,105,105,105,105,105,105,105,0,0,105,105,105,105,105,105,0,81,81,81,81,81,81,81,81,81,81,81,81,81,81,105,105,0,81,0,105,0,165,0,0,105,105,105,105,105,105,105,105,105,105,105,105,105,105,0,81,81,81,81,81,81,81,81,81,81,81,81,105,105,105,105,105,0,81,81,81,0,81,0,0,81,0,0,0,0,0,0,0,0,81,81,81,81,81,81,81,81,81,81,81,81,81,81,81,81,105,0,81,105,105,105,0,0,0,0,0,0,0,0,0,0,0,0,0,0,0,0,0,0,133,0,0,0
0,0,0,0,0,0,0,0,0,0,0,0,0,0,0,0,0,0,0,0,0,0,0,0,0,0,0,0,0,0,0,0,0,0,0,0,0,0,0,0,0,0,0,0,0,187,0,0,0,180,180,180,180,0,0,0,0,194,194,0,194,194,194,194,194,194,194,194,0,0,180,180,180,220,220,220,220,220,220,220,220,0,0,220,220,0,220,220,0,230,0,0,0,0,0,0,0,10,10,10,10,10,10,10,10,10,10,10,10,25,25,25,25,41,41,41,41,41,60,60,60,60,60,60,60,60,60,60,60,60,60,60,60,60,60,60,60,60,60,60,60,0,0,0,250,0,0,0,0,0,81,81,0,0,0,81,81,81,81,81,81,81,0,81,0,81,81,81,81,81,81,81,81,81,81,81,0,81,105,0,105,227,0,0,198,0,0,211,0,0,0,0,0,0,0,0,0,0,0,0,0,0,81,81,81,81,81,81,81,81,81,81,81,81,81,81,81,81,81,81,81,81,81,81,81,81,81,81,81,81,81,81,81,81,0,0,0,0,0,0,0,0,0,0,81,81,81,81,81,81,81,81,81,81,81,81,81,81,81,0,81,81,105,105,105,105,105,105,105,105,105,105,0,81,81,81,81,105,105,105,105,105,0,81,81,81,81,81,81,81,81,81,81,81,81,81,81,105,0,81,105,0,165,0,165,0,0,105,105,105,105,105,105,105,105,105,105,105,105,105,0,0,81,81,81,81,81,81,81,81,81,81,105,133,133,0,0,0,0,0,105,0,81,81,0,0,81,0,0,0,0,0,0,0,0,0,0,0,81,81,81,81,81,81,81,81,81,81,81,81,81,81,0,81,81,105,0,105,0,0,0,0,0,0,0,0,0,0,0,0,0,0,0,0,0,0,151,0,0,0
0,0,0,0,0,0,0,0,0,0,0,0,0,0,0,0,0,0,0,0,0,0,0,0,0,0,0,0,0,0,0,0,0,0,0,0,0,0,0,0,0,0,0,187,187,187,187,0,180,0,180,180,0,0,0,0,0,194,194,0,194,194,194,194,194,194,194,194,0,0,180,180,0,220,220,220,220,220,220,220,220,220,0,220,220,0,220,220,220,230,230,0,0,0,0,0,0,10,10,10,10,10,10,10,10,10,10,10,10,10,25,25,25,41,0,41,41,0,60,60,60,60,60,60,60,60,60,60,60,60,60,60,60,60,60,60,60,60,60,60,0,0,0,0,0,0,0,0,0,253,60,60,0,0,81,81,81,81,81,81,81,81,81,81,81,81,81,81,81,81,81,81,81,81,105,105,0,81,105,105,0,227,198,198,198,198,253,253,253,253,0,0,0,0,0,0,0,0,0,0,0,0,81,81,81,81,81,81,81,81,81,81,81,81,81,81,81,81,81,81,81,81,81,81,81,81,81,81,81,81,81,81,81,81,0,0,0,0,0,0,0,0,0,0,81,81,81,81,81,81,81,81,81,81,81,81,81,81,81,81,81,0,81,0,105,105,105,105,105,105,105,105,0,81,81,81,81,105,105,105,105,105,0,81,81,81,81,81,81,81,81,81,81,81,81,81,105,0,0,81,0,81,165,0,0,0,0,105,105,105,105,105,105,105,105,105,105,105,105,105,105,0,81,81,81,81,81,81,81,81,81,81,133,133,133,0,0,0,204,0,0,133,0,0,0,0,0,0,0,0,0,0,0,0,0,0,0,0,0,81,81,81,81,81,81,81,81,81,81,81,81,81,81,105,0,105,0,105,0,0,0,0,0,0,0,0,0,0,0,0,0,0,0,0,0,0,227,0,0,0
0,0,0,0,0,0,0,0,0,0,0,0,0,0,0,0,0,0,0,0,0,0,0,0,0,0,0,0,0,0,0,0,0,0,0,0,0,0,0,0,0,0,0,187,0,187,187,187,0,180,180,180,0,180,0,0,194,194,194,0,0,194,194,194,194,194,194,194,194,194,0,0,0,220,220,220,220,220,220,220,220,220,0,220,220,230,0,220,220,230,230,230,0,0,0,10,0,10,10,10,10,10,10,10,10,10,10,10,10,10,25,25,25,25,25,41,41,0,60,60,60,60,60,60,60,60,60,60,60,60,60,60,60,60,60,60,60,0,0,0,0,0,0,0,0,0,202,202,202,202,0,0,10,81,81,81,81,81,81,81,0,0,0,81,81,81,81,81,81,81,81,81,81,81,105,105,0,105,0,0,0,0,0,0,227,253,253,253,41,41,41,41,41,41,60,60,60,60,0,60,60,60,60,81,81,81,81,81,81,81,81,81,81,81,81,81,81,81,81,81,81,81,81,81,81,81,81,81,81,81,81,81,81,81,105,0,0,0,0,0,0,0,0,0,81,81,81,81,81,81,81,81,81,81,81,81,81,81,81,81,81,81,0,0,81,81,105,105,0,0,0,105,0,81,81,81,81,81,105,105,105,105,0,81,81,81,81,81,81,81,81,81,81,81,81,0,81,0,81,0,81,81,165,0,0,0,133,0,105,105,105,105,105,105,105,105,105,105,105,105,0,81,81,81,81,81,81,81,81,81,81,81,0,0,120,211,211,211,211,75,241,151,151,151,0,0,0,0,0,0,0,0,0,204,204,204,0,0,0,105,0,81,81,81,81,81,81,81,81,81,81,81,81,81,105,105,105,105,0,0,0,0,0,0,0,0,0,0,0,0,0,0,0,0,0,0,227,0,0,0
0,0,0,0,0,0,0,0,0,0,0,0,0,0,0,0,0,0,0,0,0,0,0,0,0,0,0,0,0,0,0,0,0,0,0,0,0,0,0,0,0,0,0,0,0,0,187,0,180,180,180,180,180,180,180,180,194,194,194,194,0,194,194,194,194,194,194,194,194,194,194,0,0,0,220,220,220,220,220,220,220,220,0,220,220,220,230,0,220,230,230,230,0,0,0,10,10,10,10,10,10,10,10,10,10,10,10,10,10,10,25,25,25,25,25,41,60,60,60,60,60,60,60,60,60,60,60,60,60,60,60,60,60,60,60,60,60,0,0,0,0,253,253,253,253,253,253,10,0,0,0,0,0,0,220,194,0,202,202,0,194,0,0,0,0,0,0,81,81,81,81,81,81,81,81,81,105,105,0,0,0,0,0,0,0,0,253,253,41,41,41,41,41,60,60,60,60,60,60,60,60,60,60,81,81,81,81,81,81,81,81,81,81,81,81,81,81,81,81,81,81,81,81,81,81,81,81,81,81,81,81,81,81,81,0,0,0,0,0,0,0,0,0,0,81,81,81,81,81,81,81,81,81,81,81,81,81,0,81,81,81,0,81,0,81,81,81,105,0,81,0,105,0,81,81,81,81,81,105,105,105,105,105,0,81,81,81,81,81,81,81,81,81,81,81,0,81,0,81,81,81,81,0,0,0,0,133,0,105,105,105,105,105,105,105,105,105,105,105,0,81,81,81,81,81,81,81,81,81,81,81,120,211,211,211,211,211,0,120,120,0,227,227,227,0,0,0,0,0,0,75,0,0,204,204,0,0,0,0,0,81,81,81,81,81,81,81,81,81,81,81,81,81,81,0,81,105,0,105,105,0,0,0,0,0,0,0,0,0,0,0,0,0,0,0,0,227,0,0,0
0,0,0,0,0,0,0,0,0,0,0,0,0,0,0,0,0,0,0,0,0,0,0,0,0,0,0,0,0,0,0,0,0,0,0,0,0,0,0,0,0,0,0,0,0,0,187,0,180,180,180,180,180,180,0,180,194,194,194,194,194,0,194,194,194,194,194,194,194,194,194,0,0,0,220,0,220,220,220,220,220,220,0,220,220,220,230,0,220,0,230,230,0,0,10,10,10,10,10,10,10,10,10,0,10,10,10,10,10,10,10,25,25,25,25,41,60,60,60,60,60,60,60,60,60,60,60,60,60,60,60,60,60,60,60,60,60,0,0,0,0,253,253,253,253,253,0,0,253,253,0,0,0,0,253,253,202,202,202,0,0,0,0,0,0,0,0,0,81,81,81,81,81,81,81,81,210,0,105,105,0,0,0,0,41,0,0,0,41,41,41,41,41,60,60,60,60,60,60,60,60,60,60,60,81,81,81,81,81,81,81,81,81,81,81,81,81,81,81,81,81,81,81,81,81,81,81,81,81,81,81,81,81,0,0,0,0,165,0,0,0,0,0,0,0,0,81,81,81,81,81,81,81,81,81,81,105,105,0,105,105,0,0,81,81,81,81,105,105,105,105,105,0,81,81,81,81,105,105,105,105,105,105,0,81,81,81,81,81,81,81,81,81,81,81,0,81,0,0,0,0,0,165,0,0,0,0,105,0,105,105,105,105,105,105,105,105,105,105,105,0,81,81,81,81,81,81,81,81,81,81,0,0,120,120,120,0,50,211,211,0,241,151,151,0,241,0,244,0,0,0,75,0,0,0,0,0,204,0,0,0,0,0,0,0,81,81,81,81,81,81,81,81,81,81,0,0,105,0,0,0,0,0,0,0,0,0,0,0,0,0,0,0,0,0,0,227,0,0,0
0,0,0,0,0,0,0,0,0,0,0,0,0,0,0,0,0,0,0,0,0,0,0,0,0,0,0,0,0,0,0,0,0,0,0,0,0,0,0,0,0,0,0,0,0,0,0,180,0,180,180,180,180,180,180,180,194,194,194,194,194,0,220,220,220,220,0,0,0,194,0,0,0,0,0,230,0,220,220,220,220,220,220,220,220,220,220,220,220,0,230,230,0,0,0,10,10,10,10,10,10,10,10,0,253,253,10,10,10,10,10,10,25,25,25,25,60,60,60,60,60,60,60,60,60,60,60,60,60,60,60,60,60,60,60,0,0,0,0,0,253,253,253,253,253,0,0,253,253,253,0,0,0,0,0,10,202,202,202,202,0,194,0,202,202,202,0,0,81,81,81,81,81,81,81,81,0,0,0,0,0,0,0,0,253,41,41,41,41,60,60,0,60,60,60,60,60,60,60,60,60,60,60,60,81,81,81,81,81,81,81,81,81,81,81,81,81,0,0,0,0,81,81,81,0,81,105,0,81,0,81,81,81,81,0,0,0,0,0,0,0,0,0,0,0,0,81,81,81,81,81,81,81,81,81,105,105,0,0,81,81,81,81,0,0,0,105,105,25,25,105,105,105,105,105,0,81,105,0,105,105,105,0,0,81,81,81,81,81,81,81,81,81,81,81,81,81,81,81,0,0,0,0,0,0,0,0,105,0,105,105,105,105,105,105,105,105,105,105,105,105,0,81,81,81,81,81,81,81,81,0,0,120,211,211,0,120,120,0,50,211,241,151,151,0,151,0,0,0,0,0,75,0,0,0,0,0,0,0,0,0,0,0,0,0,105,0,0,0,81,81,0,81,81,81,0,0,0,133,0,105,0,0,0,0,0,0,0,0,0,0,0,0,0,0,0,227,0,0,0
0,0,0,0,0,0,0,0,0,0,0,0,0,0,0,0,0,0,0,0,0,0,0,0,0,0,0,0,0,0,0,0,0,0,0,0,0,0,0,168,0,0,168,0,0,0,0,0,180,180,180,180,180,180,0,180,187,187,194,0,0,0,220,220,220,220,220,0,0,0,0,0,0,0,0,230,0,220,220,220,220,220,220,220,220,220,220,0,230,230,230,230,0,253,0,253,253,0,253,10,10,0,10,0,253,253,10,10,10,10,10,10,10,10,25,25,25,60,60,60,60,60,60,60,60,60,60,60,60,60,60,60,60,60,60,0,0,0,0,0,253,253,10,10,10,0,0,0,253,253,0,0,0,0,0,10,202,202,202,202,0,194,0,202,202,202,0,253,81,81,81,81,81,81,81,81,0,0,0,0,0,0,0,0,253,253,10,41,41,41,41,41,41,60,60,60,60,60,60,60,60,60,60,60,60,81,81,81,81,81,81,81,81,81,81,81,0,241,241,241,241,0,0,0,105,105,105,0,0,0,0,0,198,198,198,0,0,0,0,0,0,0,0,0,0,0,0,0,0,81,81,81,81,105,0,105,105,105,105,105,105,105,105,105,0,105,105,105,105,105,105,105,105,0,81,81,81,105,0,105,105,105,0,105,0,81,81,81,81,81,81,81,81,81,81,0,0,0,0,0,0,0,165,0,165,165,0,0,105,105,105,105,105,105,105,105,105,105,105,105,0,81,81,81,81,81,81,81,81,0,0,120,211,211,211,211,211,0,0,50,0,241,151,151,0,151,0,0,244,0,0,0,0,0,0,0,0,0,0,0,0,0,0,0,0,105,105,0,0,0,60,81,0,60,60,60,0,60,0,105,0,0,0,0,0,0,0,0,0,0,0,0,0,0,0,0,227,0,0,0
0,0,0,0,0,0,0,0,0,0,0,0,0,0,0,0,0,0,0,0,0,0,0,0,0,0,0,0,0,0,0,0,0,0,0,168,198,0,168,0,174,174,0,168,0,0,0,180,180,180,180,180,180,180,180,180,187,187,187,0,0,0,0,220,220,220,220,220,0,0,0,0,0,0,230,0,0,0,220,220,220,220,220,220,220,220,220,0,230,230,230,230,0,253,253,253,253,253,0,253,10,0,253,253,253,253,10,10,10,10,10,10,10,10,25,41,41,60,60,60,60,60,60,60,60,60,60,60,60,60,60,60,60,60,0,0,0,0,0,0,0,0,0,0,202,202,0,0,0,0,0,0,0,0,220,220,0,210,0,202,210,0,0,0,0,0,202,0,0,0,253,81,81,253,253,0,0,230,0,0,0,0,0,202,253,253,10,41,41,41,41,41,41,41,60,60,60,60,60,60,60,60,60,60,60,81,81,81,81,81,81,81,81,81,81,0,241,0,241,151,151,151,151,151,0,105,0,0,0,227,0,0,0,198,198,198,198,0,0,0,0,0,0,0,0,0,0,0,0,0,0,81,81,105,0,105,105,105,105,105,105,105,0,105,105,105,105,105,105,105,105,105,105,105,105,105,105,105,0,0,151,151,0,227,0,81,81,81,81,81,81,81,0,0,0,0,0,0,0,204,204,0,0,204,0,0,0,0,165,0,133,133,0,0,105,105,105,105,0,81,81,81,81,81,81,81,81,81,81,105,105,0,120,120,120,120,0,50,50,211,0,0,227,227,227,227,227,0,151,0,0,0,0,0,0,0,0,0,0,0,0,0,0,0,0,0,0,0,0,0,0,0,60,81,81,0,60,60,60,0,0,0,0,0,0,0,0,0,0,0,0,0,0,0,0,0,151,0,0,0
0,0,0,0,0,0,0,0,0,0,0,0,0,0,0,0,0,0,0,0,0,0,0,0,0,0,0,0,0,0,0,0,0,0,0,0,168,168,174,174,0,168,168,0,168,168,168,168,174,174,180,180,180,180,180,180,180,180,187,0,0,220,220,220,220,220,220,220,0,0,0,0,194,194,0,0,230,0,220,220,220,220,220,220,220,220,220,230,230,230,230,230,0,0,253,253,253,253,253,10,0,253,10,10,10,0,10,0,10,10,10,25,25,25,25,41,41,60,60,60,60,60,60,60,60,60,60,60,60,60,60,60,60,60,0,0,0,0,0,0,0,0,0,0,202,202,0,0,253,0,0,0,241,0,241,241,0,0,0,0,202,202,168,0,0,0,0,0,0,0,0,253,253,253,253,0,0,0,0,0,0,0,0,0,0,253,253,253,41,41,41,41,41,41,60,60,60,60,60,60,60,60,60,60,60,81,81,81,81,81,81,81,81,81,81,0,0,241,151,151,0,0,0,0,0,0,0,0,227,0,0,0,0,0,0,0,0,0,0,0,0,0,0,0,0,0,0,0,0,0,0,0,0,0,0,0,0,0,0,0,0,0,0,0,105,133,0,133,0,105,0,105,0,105,105,105,105,0,0,198,198,0,0,0,227,0,81,81,81,81,0,0,0,0,0,0,0,0,0,0,0,0,0,204,0,165,165,165,0,133,0,105,133,133,133,133,0,105,0,81,81,81,81,81,81,81,81,81,0,105,105,105,0,50,50,0,50,0,0,120,0,211,0,0,241,151,151,151,0,0,0,75,0,0,0,0,0,0,0,0,0,0,0,0,0,0,0,0,0,0,0,0,60,81,81,0,60,60,60,0,0,0,0,0,0,0,0,0,0,0,0,0,0,0,0,0,151,0,0,0
0,0,0,0,0,0,0,0,0,0,0,0,0,0,0,0,0,0,0,0,0,0,0,0,0,0,0,0,0,0,0,0,0,0,0,0,168,168,168,168,174,174,0,168,168,168,168,168,174,0,180,180,180,180,180,180,180,180,180,0,0,220,220,220,220,220,220,0,0,0,194,194,194,194,0,0,0,0,220,220,220,220,220,220,220,220,220,230,230,230,230,230,0,253,253,253,253,253,253,253,10,10,10,10,10,10,10,10,10,10,25,25,25,25,25,41,41,60,60,60,60,60,60,60,60,60,60,60,60,60,60,60,60,60,60,0,0,0,0,0,0,0,0,220,0,0,0,0,241,241,0,241,241,0,241,241,241,0,194,0,0,0,194,202,202,202,0,0,0,0,0,253,253,253,0,0,0,220,0,0,0,0,0,0,0,0,41,0,41,41,41,41,41,60,60,60,60,60,60,60,60,60,60,60,60,81,81,81,81,81,81,81,81,81,81,0,0,241,151,0,0,0,0,0,0,0,0,0,0,0,0,0,0,0,0,0,0,0,0,0,0,0,0,0,0,0,0,0,0,0,0,0,0,0,0,0,0,0,0,0,0,0,0,0,0,105,105,105,0,0,105,0,105,105,105,105,105,0,0,0,0,198,0,0,0,81,81,81,81,81,0,0,0,0,0,0,0,0,0,0,0,0,0,0,0,0,0,0,0,133,133,133,133,133,133,0,105,0,81,81,81,81,81,81,81,81,81,81,105,105,105,105,105,211,211,211,0,120,120,0,0,120,0,244,244,0,0,211,75,75,75,0,0,0,0,0,0,0,0,0,0,0,0,0,0,0,0,0,0,0,0,60,0,60,60,60,60,60,60,60,0,0,0,0,0,0,0,0,0,0,0,0,0,0,0,0,250,0,0,0
0,0,0,0,0,0,0,0,0,0,0,0,0,0,0,0,0,0,0,0,0,0,0,0,0,0,0,0,0,0,0,0,0,0,0,0,0,0,174,174,174,174,0,0,168,168,168,168,174,0,180,180,180,180,187,0,180,187,187,0,0,0,0,220,220,220,220,0,0,0,194,194,0,194,0,230,230,230,0,220,220,220,220,220,220,220,220,220,220,0,230,230,0,0,0,253,253,253,253,253,10,10,10,10,10,10,10,10,10,10,25,25,25,25,41,41,41,60,60,60,60,60,60,60,60,60,60,60,60,60,60,60,60,60,60,0,0,0,0,0,0,0,0,0,0,0,230,210,230,241,241,241,241,241,241,241,241,0,0,0,0,202,202,202,202,202,0,0,210,210,0,0,60,230,230,230,60,0,0,0,0,0,0,0,0,0,0,0,41,60,60,60,60,60,60,60,60,60,60,60,60,60,60,60,60,81,81,81,81,81,81,81,81,81,81,0,0,0,0,0,0,0,151,151,0,0,81,81,81,81,105,0,0,0,0,0,0,0,0,0,0,0,0,0,0,0,0,0,0,0,0,0,0,0,0,0,0,0,0,0,0,133,133,133,133,133,133,133,133,133,133,0,133,133,133,0,0,0,0,0,0,0,0,0,0,81,81,81,81,0,0,0,0,0,241,241,204,0,0,0,0,0,0,0,0,0,0,0,0,0,0,0,133,133,133,0,0,81,81,81,81,81,81,81,81,81,81,0,105,105,105,105,105,105,50,50,50,50,0,0,0,0,0,120,120,211,151,151,0,0,0,0,0,0,0,0,0,0,0,0,0,0,0,0,0,0,0,0,0,0,0,0,60,0,60,60,60,60,60,60,0,81,0,0,0,0,0,0,0,0,0,0,0,0,0,0,250,0,0,0
0,0,0,0,0,0,0,0,0,0,0,0,0,0,0,0,0,0,0,0,0,0,0,0,0,0,0,0,0,0,0,0,0,168,0,168,180,0,174,0,174,0,168,0,0,168,168,168,174,0,180,180,180,180,180,180,180,180,180,0,0,0,210,210,220,0,0,0,194,194,194,194,194,194,0,0,0,0,220,220,220,220,220,220,220,220,220,220,220,0,230,230,0,0,0,253,0,241,253,0,10,10,10,10,10,10,10,10,10,25,25,0,41,41,41,41,41,60,60,60,60,60,60,60,60,60,60,60,60,60,60,60,60,60,0,0,0,0,0,0,0,0,211,211,0,0,0,0,241,0,241,241,241,241,241,241,0,60,0,0,0,0,0,202,202,202,0,202,202,202,202,202,0,60,60,60,60,0,41,41,41,105,105,105,105,105,0,0,0,41,60,60,60,60,60,60,60,60,60,60,60,60,60,60,60,60,81,81,81,81,81,81,81,81,81,81,0,0,0,0,0,0,0,241,241,0,0,227,227,105,105,105,0,0,0,0,0,0,0,0,0,0,0,0,0,0,0,0,0,81,0,0,0,0,0,0,0,0,0,0,0,0,0,133,0,105,0,0,0,165,165,165,165,0,133,0,0,0,0,0,0,0,0,0,81,81,81,81,81,0,0,0,0,151,151,151,0,105,0,0,0,0,0,0,0,0,211,0,0,0,0,0,0,0,0,0,0,81,81,81,81,81,81,81,81,105,0,105,105,105,105,105,105,105,0,0,0,165,165,165,165,0,0,0,105,211,211,151,151,151,0,0,0,0,0,0,0,0,0,0,0,0,0,0,0,0,0,0,0,60,60,60,60,0,60,60,60,60,60,60,60,81,0,0,0,0,0,0,0,0,0,0,0,0,0,0,250,0,0,0
0,0,0,0,0,0,0,0,0,0,0,0,0,0,0,0,0,0,0,0,0,0,0,0,0,0,0,0,0,0,0,0,0,168,0,168,180,180,0,174,174,0,168,0,0,168,168,168,168,168,180,180,180,0,180,180,180,180,180,0,0,0,0,210,210,0,0,0,194,194,194,194,194,194,0,0,220,220,220,220,220,220,220,220,220,220,220,220,220,0,0,230,0,0,241,241,241,241,0,0,0,10,10,10,10,10,10,10,10,25,41,41,41,41,41,41,41,60,60,60,60,60,60,60,60,60,60,60,60,60,60,60,60,60,0,0,0,0,0,0,0,211,250,211,211,211,211,211,0,0,0,241,241,0,0,0,81,0,60,60,60,0,0,0,0,0,0,0,0,0,0,202,0,194,41,41,41,41,41,41,105,105,105,105,105,105,105,105,0,81,0,0,81,0,60,0,41,60,60,60,60,60,0,60,60,81,81,81,81,81,81,81,81,81,81,81,81,0,0,151,0,0,0,0,0,227,0,151,151,0,0,0,0,0,0,0,0,0,0,0,0,0,0,0,0,0,81,81,81,81,81,81,81,0,0,0,0,0,0,0,133,0,0,105,133,0,165,0,0,0,133,133,133,133,0,0,0,0,0,0,0,0,0,0,81,81,81,81,81,0,0,0,0,0,151,0,0,0,120,211,211,0,0,0,0,0,0,0,0,0,0,0,0,0,0,0,81,81,81,81,81,81,81,81,81,105,105,105,105,105,105,105,133,0,133,133,165,165,0,0,204,105,105,0,0,0,0,120,211,244,0,0,0,0,0,0,0,0,0,0,0,0,0,0,0,0,0,0,0,41,60,60,60,60,60,60,60,60,0,0,81,81,0,0,0,0,0,0,0,0,0,0,0,0,0,10,244,0,0,0
0,0,0,0,0,0,0,0,0,0,0,0,0,0,0,0,0,0,0,0,0,0,0,0,0,0,0,0,0,0,0,0,0,168,168,168,180,180,180,0,174,0,168,0,168,168,168,168,174,0,180,180,0,0,0,180,180,180,180,180,0,0,210,210,210,0,0,194,194,194,194,194,194,194,0,0,0,210,220,220,0,0,220,230,0,220,220,220,0,0,0,0,0,0,241,241,241,241,0,0,0,10,10,10,10,10,10,10,10,25,25,41,41,41,41,41,41,60,60,60,60,60,60,60,60,60,60,60,60,60,60,60,60,0,41,0,0,0,0,0,0,211,211,211,211,211,211,211,211,0,0,0,0,0,0,0,0,0,60,60,60,0,0,0,0,0,0,0,0,0,0,0,194,194,194,41,41,41,41,105,105,105,105,105,105,105,0,81,81,81,0,60,60,60,60,60,60,0,60,60,60,60,0,81,81,81,81,81,81,81,81,81,81,81,81,81,81,105,105,105,250,250,241,151,151,151,151,151,151,0,0,0,0,0,0,0,0,0,0,0,0,0,0,81,81,81,81,81,81,81,81,81,81,81,81,81,0,0,0,0,105,105,105,133,0,105,133,133,165,165,0,133,0,133,133,0,0,0,198,0,0,0,0,81,81,81,81,81,81,0,81,0,0,0,0,241,241,241,120,0,0,0,0,0,0,0,0,0,0,0,0,0,0,0,133,133,133,0,105,0,81,81,81,81,81,105,105,105,105,105,105,0,133,0,165,165,0,165,0,133,133,133,0,105,0,0,0,105,50,50,50,50,50,50,0,0,0,0,0,0,0,0,0,0,0,0,0,0,60,0,60,60,60,60,60,60,60,60,0,60,0,41,41,41,0,0,0,0,0,0,0,0,0,0,10,204,244,0,0,0
0,0,0,0,0,0,0,0,0,0,0,0,0,0,0,0,0,0,0,0,0,0,0,0,0,0,0,0,0,0,0,0,0,168,168,168,168,180,180,180,0,174,0,0,0,168,168,174,174,180,180,0,0,187,187,0,180,180,180,180,0,0,210,210,0,0,0,194,194,194,194,194,194,194,0,210,0,210,220,220,220,0,0,230,230,0,220,220,220,0,220,230,0,230,230,230,241,241,0,0,0,10,10,10,0,10,10,10,0,41,41,41,41,41,41,41,41,60,60,60,60,60,60,60,60,60,60,60,60,60,60,60,60,0,41,0,0,75,0,75,0,211,211,211,211,211,211,211,211,0,0,0,0,0,0,0,0,0,60,60,60,0,0,0,0,0,0,0,0,0,0,194,194,194,194,194,41,41,41,41,105,105,105,105,105,0,81,81,0,81,41,81,0,0,41,41,41,41,0,60,60,60,60,60,81,81,81,81,81,81,81,81,81,81,81,81,81,105,105,105,105,105,105,0,241,241,0,0,75,0,0,105,105,105,0,0,0,0,0,0,81,81,81,81,81,81,81,81,81,81,81,81,81,81,81,81,0,0,105,105,105,105,105,0,105,133,133,133,133,133,133,133,133,0,133,0,105,0,0,105,105,0,0,81,81,81,81,81,81,0,0,0,105,0,0,0,0,0,250,250,250,0,120,0,0,0,0,0,0,0,0,133,133,133,133,0,0,81,0,81,81,81,81,0,81,105,105,105,105,105,105,105,0,0,165,165,165,165,165,0,0,105,105,105,0,0,81,81,81,81,50,50,50,50,50,0,0,0,0,0,0,133,0,0,0,0,41,0,0,60,60,60,60,60,60,60,60,0,41,0,41,41,41,41,0,0,0,0,0,0,0,0,0,10,105,120,244,0,0,0
0,0,0,0,0,0,0,0,0,0,0,0,0,0,0,0,0,0,0,0,0,0,0,0,0,0,0,0,0,0,0,0,0,168,168,168,180,180,180,0,0,174,0,0,0,168,174,174,180,0,180,187,187,187,187,187,0,180,180,180,180,180,210,210,0,0,0,194,194,194,194,194,194,194,194,0,0,0,0,220,220,0,0,220,220,220,220,220,220,0,0,230,0,230,230,230,241,0,0,25,0,10,25,0,25,0,10,10,10,41,41,41,41,41,41,41,41,60,60,60,60,60,60,60,60,60,60,60,60,60,60,60,60,60,0,0,75,75,75,0,0,211,211,211,211,211,211,211,211,0,0,0,0,0,0,0,0,165,105,60,0,81,0,0,0,0,0,0,0,0,0,0,0,194,41,41,41,41,41,41,105,105,105,105,105,0,81,81,81,81,0,0,0,0,41,41,41,41,41,60,60,60,60,81,81,81,81,81,81,81,81,81,81,81,81,81,81,81,105,105,105,105,105,105,105,0,0,75,75,75,105,105,105,105,105,0,0,0,0,81,81,81,81,81,81,81,81,81,81,81,81,81,81,81,81,81,105,105,105,105,105,105,105,105,105,133,0,105,133,133,133,133,133,133,0,105,105,105,105,105,105,105,0,81,81,81,81,81,81,105,105,105,105,105,105,105,105,105,0,250,250,0,120,0,0,0,0,0,0,0,0,133,0,0,81,0,81,81,81,81,81,81,81,81,81,81,0,105,105,105,105,133,0,0,165,165,165,0,165,165,0,133,133,133,0,0,0,81,81,81,81,50,50,50,81,50,0,0,0,0,133,133,0,0,0,0,81,81,81,0,60,60,60,60,0,60,0,0,41,41,41,41,41,0,0,0,0,0,0,0,0,0,10,81,250,120,244,0,0,0
0,0,0,0,0,0,0,0,0,0,0,0,0,0,0,0,0,0,0,0,0,0,0,0,0,0,0,0,0,0,0,0,0,168,168,168,0,174,174,174,174,174,0,168,174,174,174,174,0,180,187,187,187,187,187,0,151,180,180,180,180,180,210,210,210,210,0,0,194,194,194,194,194,194,210,0,0,0,0,220,220,0,220,220,220,220,220,220,220,220,0,220,230,230,230,230,230,0,230,0,0,10,0,10,25,25,25,0,10,41,41,41,41,41,41,41,41,60,60,60,60,60,60,60,60,60,60,60,60,60,60,60,60,60,60,75,75,50,75,75,0,211,211,211,211,211,211,211,211,75,0,0,0,0,0,0,165,165,0,0,0,0,0,0,0,0,0,0,0,0,0,0,0,0,60,0,0,41,41,41,41,41,105,105,0,0,0,41,0,0,41,41,0,0,41,41,41,41,60,60,60,60,60,60,81,81,81,81,81,81,81,81,81,81,81,81,81,81,105,105,105,105,105,105,105,105,105,105,105,105,105,133,133,133,133,0,105,0,0,81,81,81,81,81,81,81,81,81,81,81,81,81,81,81,81,81,105,105,105,105,105,105,105,105,105,133,0,133,133,133,133,133,133,133,0,105,105,105,105,105,105,105,105,0,81,81,81,0,81,105,105,105,105,105,105,105,105,0,0,250,250,0,120,120,0,0,0,0,0,0,133,0,0,0,81,0,81,81,81,81,81,81,81,81,81,81,81,105,105,105,105,105,0,105,165,204,0,165,165,165,0,133,0,105,0,0,81,81,81,81,81,81,81,81,81,81,81,0,0,133,133,133,133,0,0,105,105,105,105,105,0,81,81,0,60,0,0,0,41,41,41,41,60,0,0,0,0,0,0,0,41,81,81,165,250,120,244,0,0,0
0,0,0,0,0,0,0,0,0,0,0,0,0,0,0,0,0,0,0,0,0,0,0,0,0,0,0,0,0,0,0,0,0,168,168,168,180,180,0,174,174,174,174,174,0,174,174,174,180,180,187,187,187,151,187,151,227,227,227,0,187,187,210,210,210,0,0,194,194,194,194,194,194,194,0,0,0,0,0,0,0,220,0,230,0,220,220,220,0,0,0,0,230,230,230,230,0,0,230,0,0,10,10,0,10,10,10,0,41,41,41,41,41,41,41,41,41,60,60,60,60,60,60,60,60,60,60,60,60,60,60,60,60,60,60,0,50,50,50,75,0,211,211,211,211,211,211,75,75,0,0,0,0,0,0,0,133,133,133,0,0,0,0,0,0,0,0,0,0,0,0,0,0,0,41,41,41,41,41,41,41,41,41,41,0,81,0,81,0,0,41,0,0,41,41,41,41,41,0,60,60,60,60,60,81,81,81,81,81,81,81,81,81,81,81,81,81,81,81,105,105,105,105,105,105,105,105,105,105,105,105,105,105,105,105,0,105,0,105,0,105,105,0,81,81,81,81,81,81,81,81,81,81,81,81,81,105,105,105,105,105,105,105,105,105,105,105,105,133,133,133,0,105,105,105,105,105,105,105,105,105,105,105,0,81,81,81,0,81,105,105,105,105,105,105,105,105,105,0,250,250,0,120,0,0,0,0,0,0,133,0,0,0,105,0,105,0,81,81,81,81,81,81,81,81,81,81,81,105,105,105,133,0,133,133,165,0,165,165,165,0,0,105,133,0,0,81,81,81,81,81,81,81,81,81,81,81,0,0,133,133,0,105,105,105,0,0,105,0,81,81,81,81,81,81,0,0,41,41,41,41,41,41,0,0,0,41,0,81,105,105,133,0,165,250,120,244,0,0,0
0,0,0,0,0,0,0,0,0,0,0,0,0,0,0,0,0,0,0,0,0,0,0,0,0,0,0,0,0,0,0,0,0,168,168,0,180,180,0,174,174,174,0,174,0,174,174,0,0,180,187,187,151,227,0,151,227,227,0,187,187,187,187,210,241,241,241,241,194,0,0,0,0,0,0,0,0,0,0,220,0,0,220,220,220,220,220,230,230,0,220,0,230,230,230,230,0,0,0,0,0,10,10,0,10,10,10,0,10,41,0,41,41,41,41,0,41,60,60,60,60,60,60,60,60,60,60,60,60,60,60,60,60,60,0,0,50,50,50,0,0,211,211,0,211,75,75,75,75,0,0,0,0,0,0,0,133,133,133,133,133,0,0,0,0,81,81,81,0,0,0,0,0,60,60,0,0,41,60,0,41,41,41,41,41,0,41,0,0,0,0,0,0,0,41,0,41,60,0,0,25,60,0,60,81,81,81,81,81,81,81,81,81,81,81,81,81,81,81,81,81,105,105,105,105,105,105,105,105,105,105,105,133,133,0,105,105,0,0,81,105,0,81,81,81,81,81,81,81,81,81,81,81,81,81,81,105,105,105,105,105,105,105,105,105,105,105,133,133,133,133,133,133,0,105,105,105,105,105,105,105,105,0,81,81,81,81,105,105,105,105,105,105,105,105,105,105,105,105,241,204,204,204,204,204,204,0,0,0,133,0,0,0,0,105,0,105,0,81,81,81,81,81,81,81,81,81,81,81,105,133,133,0,133,133,165,165,165,165,0,0,165,0,0,0,81,81,81,81,81,81,81,81,81,81,81,0,0,0,133,133,133,0,105,105,0,133,133,0,0,81,81,81,81,81,0,0,41,41,41,41,0,41,41,41,81,105,105,133,133,133,133,0,165,250,120,244,0,0,0
0,0,0,0,0,0,0,0,0,0,0,0,0,0,0,0,0,0,0,0,0,0,0,0,0,0,0,0,0,0,0,0,0,0,168,0,180,180,0,174,0,168,168,168,168,168,174,0,0,187,187,187,151,0,151,227,0,227,0,187,187,187,241,241,241,241,241,241,241,0,0,0,0,0,0,0,0,0,0,0,220,0,220,220,220,220,220,220,230,0,230,0,0,0,0,230,230,0,241,0,10,10,10,10,10,10,10,10,0,25,0,41,41,41,41,41,41,60,60,60,60,60,60,60,60,60,60,60,60,60,60,60,60,60,60,0,50,50,50,50,211,0,0,211,211,0,0,75,75,75,0,0,0,0,0,0,0,133,0,133,0,105,0,105,0,81,81,81,0,81,81,81,0,60,60,60,0,0,0,41,41,0,41,0,0,0,0,0,0,0,0,0,0,0,0,230,230,230,230,253,253,41,253,81,81,81,81,81,81,81,81,81,81,81,81,81,81,81,81,81,81,105,105,105,105,105,105,105,105,105,105,105,105,105,105,0,0,0,0,81,0,0,0,81,81,81,81,81,81,81,81,81,81,81,81,81,105,105,105,105,105,105,105,105,105,133,133,133,133,0,133,0,105,105,105,105,105,105,105,105,105,105,105,0,81,81,81,0,105,105,105,105,105,105,105,105,105,105,0,204,244,0,0,0,0,133,133,133,0,133,0,0,0,0,0,105,105,0,81,81,81,81,81,81,81,81,81,81,81,105,133,133,0,133,133,133,165,0,0,105,105,0,0,105,0,81,81,81,81,81,81,81,81,81,81,81,0,0,0,133,133,0,105,133,0,0,133,133,133,0,105,105,105,0,81,0,0,41,41,41,0,41,41,60,105,133,133,133,133,133,133,133,0,165,250,120,244,0,0,0
0,0,0,0,0,0,0,0,0,0,0,0,0,0,204,0,0,0,0,0,0,0,0,0,0,0,0,0,0,0,0,0,0,0,0,0,180,0,0,0,168,0,168,168,168,168,174,174,180,0,0,151,151,227,227,227,227,227,227,187,194,194,0,241,241,241,253,253,0,0,0,0,0,0,0,0,0,0,0,0,230,0,220,0,220,0,220,230,230,230,0,0,0,0,230,230,230,241,0,0,10,10,0,10,10,10,10,10,25,0,0,25,41,41,41,41,60,60,60,60,60,60,60,60,60,60,60,60,60,60,60,60,60,60,60,0,41,50,50,0,0,0,0,0,211,0,75,75,75,75,0,0,0,0,0,0,0,0,105,0,105,105,0,105,0,81,81,81,0,0,0,0,0,60,0,60,0,0,0,0,0,41,0,0,0,0,0,0,241,241,241,241,0,0,230,230,230,230,230,230,230,0,253,253,81,81,81,81,81,81,81,81,81,81,81,81,81,81,81,81,81,105,105,105,105,105,105,105,105,105,105,105,105,105,105,0,0,0,0,0,0,0,0,81,81,81,81,81,81,81,81,81,81,81,81,81,105,105,105,105,105,105,105,105,105,105,133,133,0,105,105,105,105,105,105,105,105,105,105,105,105,105,105,0,81,81,81,0,105,105,105,105,105,105,105,105,105,105,204,204,0,0,165,165,0,133,133,133,133,133,133,133,0,0,0,0,105,0,81,81,81,81,81,81,81,81,81,81,81,81,133,133,133,133,0,0,133,165,165,0,0,0,0,0,81,81,81,81,81,81,81,81,81,81,81,81,0,0,0,133,0,0,105,0,0,0,133,133,0,105,105,105,0,81,81,81,0,0,41,41,41,41,81,105,105,133,133,133,133,133,133,0,105,133,204,50,244,0,0,0
0,0,0,0,0,0,0,0,0,0,0,0,0,0,204,0,0,0,0,0,0,0,0,0,0,0,0,0,0,0,0,0,0,0,0,0,0,180,0,0,168,168,168,168,168,168,168,0,0,0,180,180,151,227,227,227,227,227,227,0,194,194,0,241,241,253,253,253,253,0,0,0,0,0,0,0,0,0,0,0,220,0,220,220,220,220,230,230,230,230,0,230,230,230,230,230,230,230,253,25,0,25,0,10,10,0,10,10,25,25,25,0,25,41,41,41,60,60,60,60,60,60,60,60,60,60,60,60,60,60,60,60,60,60,60,0,41,50,50,0,0,0,0,0,0,75,75,75,75,75,75,0,0,0,0,0,0,0,0,105,105,105,0,105,0,81,81,81,0,60,0,0,0,60,60,60,0,0,0,0,0,0,0,0,0,0,241,0,241,241,0,241,241,0,230,230,230,230,230,230,230,253,253,0,253,81,81,81,81,81,81,81,81,81,81,81,81,81,81,81,105,105,105,105,105,105,105,105,105,105,105,0,81,81,0,0,0,0,0,0,0,0,0,81,81,81,81,81,81,81,81,81,81,81,81,81,105,105,105,105,105,105,105,105,105,105,165,165,0,133,133,133,0,105,105,105,105,105,105,105,105,105,105,0,81,81,81,0,105,105,105,105,105,105,105,105,105,105,0,204,0,0,204,0,165,0,133,133,133,133,133,133,133,133,0,0,105,105,0,81,81,81,81,81,81,81,81,81,81,81,105,105,133,0,120,250,0,250,0,10,60,0,0,105,0,81,81,81,81,81,81,81,81,81,81,0,0,0,0,133,0,0,105,133,0,0,133,133,133,0,105,105,0,81,81,81,0,0,0,41,41,81,81,105,105,133,133,133,0,105,105,0,0,81,133,204,120,0,0,0
0,0,0,0,0,0,0,0,0,0,0,0,0,0,204,0,0,0,0,0,0,0,0,0,0,0,0,0,0,0,0,0,0,187,187,0,187,0,0,0,168,168,168,168,168,168,168,0,0,0,0,0,227,227,227,227,227,227,0,187,194,194,253,253,253,253,253,253,0,0,0,0,0,0,0,0,0,0,0,220,220,220,220,220,220,230,230,230,230,230,230,230,230,230,230,230,230,230,253,25,0,25,25,25,0,10,10,0,25,0,0,0,25,25,41,41,41,60,60,60,60,60,60,60,60,60,60,60,60,60,60,60,60,60,0,41,41,50,211,211,0,198,198,198,198,0,0,0,0,0,0,0,151,0,0,0,0,0,105,105,105,105,0,0,0,81,81,81,0,60,0,60,60,60,60,0,0,0,0,0,0,0,0,0,0,241,241,241,241,241,241,241,241,0,230,230,230,230,230,230,230,253,253,253,253,81,81,81,81,81,81,81,81,81,81,81,81,81,81,81,105,105,105,105,0,105,105,105,0,105,0,0,81,0,253,0,253,0,0,0,0,0,253,253,253,81,81,81,81,81,81,81,81,81,81,81,0,105,105,105,105,105,105,105,105,133,133,165,0,133,0,105,105,105,105,105,105,105,105,105,105,105,105,0,81,81,0,0,81,105,105,105,105,105,105,105,105,105,105,204,0,0,0,0,133,133,0,133,133,133,133,133,133,133,0,133,0,105,105,0,81,81,81,81,81,81,81,81,81,81,0,133,120,120,120,120,0,0,0,250,0,10,0,0,0,81,81,81,81,81,81,81,81,81,81,0,0,0,0,0,0,0,0,0,0,0,133,133,133,0,105,0,81,81,81,81,0,0,0,41,41,81,81,105,105,105,0,81,0,60,0,0,25,25,60,133,250,0,0,0
0,0,0,0,0,0,0,0,0,0,0,0,0,0,0,165,0,0,0,0,0,0,0,0,0,0,0,0,0,0,0,0,0,187,0,187,187,0,0,0,168,168,0,168,0,0,0,0,0,0,227,227,227,227,227,227,227,227,0,187,194,194,0,253,253,0,253,0,0,0,0,0,0,0,0,0,0,0,0,220,220,220,220,220,230,230,230,230,230,230,230,230,230,230,230,230,0,253,253,25,25,0,10,10,10,25,0,0,25,0,0,25,25,25,25,25,41,60,60,60,60,60,60,60,60,60,60,60,60,60,60,60,60,60,0,41,211,211,211,211,0,198,198,198,0,0,151,0,0,0,151,151,0,0,241,0,0,0,0,0,0,0,0,0,0,0,81,0,60,0,60,0,0,41,41,0,41,41,41,0,0,0,0,0,241,241,241,241,241,241,241,241,241,241,241,241,0,253,253,253,253,253,253,253,253,253,60,81,81,81,81,81,81,81,81,81,81,81,81,81,105,105,105,0,0,105,105,0,0,105,253,0,0,253,253,0,253,253,253,0,0,253,253,253,253,253,81,81,81,81,81,81,81,81,81,81,81,133,133,0,105,105,105,105,105,133,133,133,165,0,0,105,105,105,105,105,105,105,105,105,105,105,105,105,0,81,81,0,81,105,105,105,105,105,105,105,105,105,105,133,0,0,0,0,133,133,133,133,133,133,133,133,133,133,133,133,133,133,0,105,0,81,81,81,81,81,81,81,81,81,105,120,120,120,120,120,120,0,120,0,0,0,0,0,0,0,81,81,81,81,81,81,81,81,81,81,0,0,0,0,0,0,0,0,133,0,133,133,0,105,105,0,81,81,81,81,81,0,0,0,41,81,81,81,81,0,60,0,41,0,0,0,253,253,41,81,165,0,0,0
0,0,0,0,0,0,0,0,0,0,0,0,0,0,0,165,0,0,0,0,0,0,0,0,0,0,0,0,0,0,0,0,0,187,187,187,187,0,0,0,0,168,168,168,0,0,0,0,0,0,227,227,0,227,227,227,227,187,187,187,194,194,0,253,253,0,0,253,0,0,0,0,0,0,0,0,0,0,220,220,220,220,220,220,220,230,230,230,230,230,230,230,230,230,230,230,0,230,253,0,25,25,25,25,25,25,25,0,0,41,41,0,0,25,25,0,41,60,60,60,60,60,60,60,60,60,60,60,60,60,60,60,60,0,41,41,211,0,211,211,0,0,198,198,0,0,151,151,50,50,151,151,0,241,0,0,0,0,0,0,0,0,0,0,0,81,0,60,60,0,0,0,0,41,41,41,41,41,0,0,0,0,0,0,0,241,241,241,241,241,241,241,241,241,0,230,230,230,230,253,253,253,253,253,253,0,60,81,81,81,81,81,81,81,81,81,81,81,81,81,81,81,105,0,0,0,0,0,0,253,253,253,253,0,253,253,253,253,0,0,0,0,0,253,253,253,253,253,0,0,0,81,0,81,81,81,81,105,105,105,105,105,105,105,133,165,0,133,0,0,0,105,105,105,105,105,105,105,105,105,105,105,105,105,0,81,81,81,81,0,81,105,105,105,105,105,105,105,105,105,133,0,0,0,133,133,133,133,133,133,133,133,133,0,165,0,133,133,133,0,0,81,81,81,81,81,81,81,81,81,81,81,120,120,120,120,120,0,0,0,0,0,0,0,0,0,81,81,81,81,81,81,81,81,81,81,0,0,0,105,105,0,0,0,105,0,133,133,0,105,0,81,81,81,81,81,81,0,0,0,0,41,60,60,0,41,41,0,0,10,0,253,253,253,25,60,133,0,0,0
0,0,0,0,0,0,0,0,0,0,0,0,0,0,0,165,0,0,0,0,0,0,0,0,0,0,0,0,0,0,0,0,0,187,187,187,187,0,0,0,0,0,168,168,0,0,0,0,0,227,227,227,0,198,0,227,227,0,180,180,194,194,241,241,253,253,253,0,0,0,0,0,0,0,0,0,0,0,0,220,220,220,220,220,230,230,230,230,230,230,230,230,230,0,0,0,0,253,0,81,81,0,0,253,0,41,0,41,41,41,41,41,41,41,41,41,41,60,60,60,60,60,60,60,60,60,60,60,60,60,60,60,60,0,41,211,211,0,211,211,0,198,10,198,0,0,151,50,50,151,151,151,0,241,0,0,0,0,0,0,0,0,0,0,0,81,81,0,60,0,60,0,0,41,0,0,41,0,0,0,0,0,0,0,241,241,241,241,241,241,241,241,241,241,241,0,230,230,0,253,253,253,0,241,253,253,10,25,0,81,81,81,81,81,81,81,81,81,81,81,81,81,0,0,0,0,165,165,0,253,253,253,0,253,0,0,0,0,241,253,253,0,0,0,253,253,253,253,253,253,253,253,253,0,81,81,105,105,105,133,133,133,133,0,105,0,0,0,0,0,0,0,0,0,105,105,105,105,105,105,105,105,105,105,0,81,81,81,81,0,81,105,105,105,105,105,105,105,105,105,105,0,0,204,0,0,133,133,133,133,133,133,133,133,165,165,165,165,0,0,105,0,81,81,0,81,81,81,81,81,120,0,120,120,120,120,120,120,0,0,0,0,0,0,0,105,0,81,81,81,81,81,81,81,81,81,0,0,0,105,105,0,0,0,105,0,105,105,105,105,0,81,81,81,81,81,81,0,0,0,0,0,41,41,41,0,25,25,0,0,253,253,253,253,253,41,165,0,0,0
0,0,0,0,0,0,0,0,0,0,0,0,0,0,0,165,0,0,0,0,0,0,0,0,0,0,0,0,0,0,0,0,0,187,0,187,187,0,0,0,0,0,0,0,0,0,0,0,0,0,0,0,0,198,0,227,187,187,187,187,194,194,241,253,0,241,241,241,0,0,0,0,0,0,0,0,0,0,220,220,220,220,220,220,220,220,220,230,230,0,220,0,0,0,0,0,0,0,81,81,81,81,0,0,0,41,0,41,41,41,41,41,41,41,41,0,41,60,60,60,60,60,60,60,60,60,60,60,60,60,60,60,60,0,41,211,211,211,211,211,211,198,0,198,75,75,151,75,0,151,151,151,0,241,0,0,0,0,0,0,0,0,0,0,0,81,81,81,0,0,60,0,0,41,41,41,41,0,0,0,0,0,0,0,241,241,241,241,241,241,241,241,241,241,0,230,230,230,241,253,253,253,253,253,253,253,0,10,81,81,81,81,81,81,81,81,81,81,81,81,81,81,0,0,0,0,0,253,253,253,253,253,253,253,253,253,253,253,253,253,253,253,253,253,253,253,253,253,253,253,253,253,253,253,81,0,105,105,105,105,105,105,105,0,0,0,0,0,0,0,0,0,0,105,105,105,105,105,105,105,105,105,105,105,0,81,81,81,81,81,81,105,105,105,105,105,105,105,105,105,105,105,105,0,0,133,133,133,133,133,133,133,133,133,165,0,0,105,105,0,105,105,0,0,0,105,0,81,0,81,105,120,0,120,120,0,120,120,0,0,0,0,0,0,105,105,0,81,81,81,81,81,81,81,81,81,0,0,105,105,105,105,105,105,0,133,0,0,81,81,81,81,81,81,81,81,81,0,0,0,0,0,0,0,253,253,253,253,253,253,253,253,253,253,25,60,250,0,0,0
0,0,0,0,0,0,0,0,0,0,0,0,0,0,0,165,0,0,0,0,0,0,0,0,0,0,0,0,0,0,0,0,0,187,0,187,0,180,180,0,0,0,0,168,0,0,0,0,0,0,0,0,0,0,227,227,187,187,187,0,194,194,241,241,241,241,241,0,0,0,0,0,0,0,0,0,0,0,220,220,220,220,220,220,220,220,220,220,220,220,220,220,220,220,0,0,0,0,81,0,60,60,81,0,0,0,0,0,41,41,41,41,41,41,41,41,41,60,60,60,60,60,60,60,60,60,60,60,60,60,60,60,60,0,41,0,0,211,211,211,211,211,0,75,75,75,75,210,75,75,75,0,0,0,0,0,0,0,0,0,0,0,0,0,0,81,0,81,81,0,60,202,41,41,41,41,41,0,0,0,0,0,0,0,0,241,241,241,241,241,241,241,241,241,0,230,230,241,253,253,253,253,0,241,241,253,0,0,81,81,81,81,81,81,81,81,81,81,0,81,0,0,0,0,0,253,253,253,253,253,253,253,253,253,253,253,253,253,253,253,253,253,253,253,253,253,253,253,253,253,253,253,253,253,253,253,253,105,105,105,105,105,105,0,0,0,0,0,0,0,0,0,0,0,105,105,105,105,105,105,105,105,105,105,0,81,81,81,81,81,81,105,105,105,105,105,105,105,105,105,105,105,105,204,0,0,0,133,133,133,133,133,133,165,0,0,105,105,105,0,105,105,105,0,105,105,0,105,0,105,105,0,120,120,120,120,120,0,0,0,0,0,0,105,105,105,0,81,81,81,81,81,81,81,81,105,105,105,105,105,105,105,105,105,0,105,0,0,81,81,81,81,0,81,81,81,0,0,0,0,0,0,0,0,253,253,253,253,253,253,253,253,253,253,41,81,250,0,0,0
0,0,0,0,0,0,0,0,0,0,0,0,0,0,0,0,0,0,0,0,0,0,0,0,0,0,0,0,0,0,0,0,0,0,0,187,0,180,180,0,0,174,0,0,0,0,0,0,0,0,0,0,0,0,227,187,187,187,187,0,0,194,241,241,241,0,230,230,0,0,0,0,0,0,0,0,0,0,220,220,220,220,220,220,220,220,220,220,220,220,220,220,220,220,0,0,0,0,0,0,60,60,0,60,60,202,0,0,0,41,41,41,41,41,0,41,60,60,60,60,60,60,60,60,60,60,60,60,60,60,60,60,60,81,0,0,0,211,211,0,211,211,0,75,75,75,210,210,210,210,75,0,0,0,241,0,0,0,0,0,0,0,0,0,0,0,0,60,60,60,0,210,0,210,41,0,0,0,0,0,0,0,0,0,0,241,241,241,241,241,241,241,241,241,241,0,230,230,253,0,253,253,0,241,253,0,253,0,81,81,81,81,81,81,81,81,0,0,0,0,25,0,0,253,253,253,253,253,253,253,253,253,253,253,253,253,253,253,253,253,253,253,253,253,253,253,253,253,253,253,253,253,253,253,253,253,253,0,0,81,81,10,81,0,0,10,0,10,0,10,0,0,0,0,0,105,105,105,105,105,105,105,105,105,0,81,81,81,81,81,0,105,105,105,105,105,105,105,105,105,105,0,105,204,0,0,0,133,133,133,133,133,133,165,0,133,133,133,0,0,0,105,105,105,105,105,105,105,0,105,105,105,120,120,0,211,0,0,0,0,0,0,0,0,105,105,0,81,81,81,81,81,81,81,81,105,105,105,105,105,105,105,105,105,0,105,105,0,81,81,81,105,0,81,0,81,0,0,0,0,0,0,0,0,253,253,253,41,41,0,25,25,0,25,60,105,50,0,0,0
0,0,0,0,0,0,0,0,0,0,0,0,0,0,0,0,0,0,0,0,0,0,0,0,0,0,0,0,0,0,0,0,0,0,0,0,0,180,180,180,180,0,174,0,0,0,0,0,0,0,0,0,0,0,0,187,187,187,0,0,0,0,241,241,0,230,230,230,0,0,0,0,0,0,0,0,0,0,220,220,220,220,220,220,220,220,220,220,220,220,220,220,220,220,211,211,75,75,241,0,60,60,60,0,202,202,202,0,0,41,41,41,41,0,0,41,60,60,60,60,60,60,60,60,60,60,60,60,60,60,60,60,60,0,0,0,0,0,0,0,0,0,0,0,75,0,210,210,0,210,75,0,0,0,0,0,0,0,0,0,0,0,0,0,0,0,253,0,194,194,0,210,210,210,41,0,0,0,0,0,0,0,0,0,241,241,241,241,241,241,241,241,241,241,0,230,230,253,253,0,241,241,241,241,241,241,0,81,81,81,81,81,81,81,81,81,81,0,0,0,25,0,0,253,253,253,253,253,253,253,253,253,253,253,253,253,253,253,253,253,253,253,253,253,253,253,253,253,253,253,253,253,253,253,10,0,253,0,81,81,0,0,0,81,10,10,10,0,0,253,10,0,0,0,0,0,105,105,105,105,105,105,105,0,81,81,81,81,81,81,81,105,105,105,105,105,105,105,105,105,105,105,105,204,204,204,204,0,0,0,133,133,133,0,165,165,165,165,0,0,0,105,105,105,105,105,105,105,105,105,105,0,105,50,50,0,0,0,0,133,133,0,105,105,105,105,0,81,81,81,81,81,81,81,105,105,105,105,105,105,105,105,105,105,0,105,105,105,0,81,81,105,105,105,105,0,0,0,0,0,0,0,0,0,0,105,133,133,0,0,0,0,0,41,81,105,50,0,0,0
0,0,0,0,0,0,0,0,0,0,0,0,0,0,0,0,0,0,0,0,0,0,0,0,0,0,0,0,0,0,0,0,0,0,0,0,0,180,180,180,180,0,174,0,0,180,120,0,0,0,0,0,0,194,0,187,187,187,187,0,0,0,241,0,230,230,230,230,0,0,0,0,0,0,0,0,0,0,220,220,220,220,220,220,220,220,220,220,220,220,220,220,220,220,220,220,0,0,0,0,0,0,0,60,81,81,0,0,41,41,41,0,0,25,41,60,60,60,60,60,60,60,60,60,60,60,60,60,60,60,60,60,60,60,0,0,0,0,0,0,0,0,0,0,0,210,210,210,210,210,210,210,133,198,198,0,0,0,0,0,0,0,0,0,253,253,253,0,0,194,0,0,202,202,202,0,25,0,0,0,0,0,0,0,241,241,241,241,241,241,241,241,241,241,0,230,253,253,253,253,0,241,241,241,241,241,0,81,81,81,81,81,81,81,81,81,81,0,0,0,0,10,10,0,253,253,253,253,253,253,253,253,253,253,253,253,253,253,253,253,253,253,253,253,253,253,253,253,253,253,253,253,253,253,10,10,10,10,0,10,0,253,253,253,253,253,253,253,253,0,253,0,0,10,10,0,10,105,105,105,105,105,105,0,81,81,81,81,81,81,81,105,105,105,105,105,105,105,105,105,105,105,105,105,204,204,204,204,0,0,133,133,133,0,165,165,165,165,0,0,0,105,105,105,105,105,105,105,0,81,105,0,105,105,105,105,105,105,133,133,0,0,105,105,105,0,81,81,81,81,81,81,81,81,105,105,105,105,105,105,105,105,105,105,0,105,105,105,105,105,105,105,0,105,105,105,0,0,0,0,0,0,0,0,105,133,165,0,0,0,0,0,0,41,81,105,50,0,0,0
0,0,0,0,0,0,0,0,0,0,0,0,0,0,0,0,0,0,0,0,0,0,0,0,0,0,0,0,0,0,0,0,0,0,0,0,0,0,0,174,174,174,0,0,0,187,0,0,0,0,180,0,0,194,194,194,194,0,0,187,0,194,0,0,230,230,0,220,230,0,0,0,0,0,0,0,0,0,220,220,220,220,0,220,220,220,220,220,220,220,220,220,220,220,220,220,0,0,0,0,0,60,60,0,60,60,60,81,81,250,0,0,0,0,0,0,60,60,60,60,60,60,60,60,60,60,60,60,60,60,0,60,60,60,0,0,0,0,210,0,0,220,0,210,210,0,0,202,202,202,202,133,198,198,198,198,0,0,0,0,0,0,0,253,253,253,0,0,0,0,0,202,202,202,202,202,0,0,0,0,0,0,0,241,241,241,241,241,241,241,241,241,241,241,0,230,230,253,253,253,0,241,241,241,253,253,81,81,81,81,81,81,81,81,81,0,0,0,0,0,0,0,253,253,253,253,253,253,253,253,253,253,253,253,253,253,253,253,253,253,253,253,253,253,253,253,253,253,253,253,253,253,253,253,10,10,0,253,253,253,253,253,253,253,253,253,253,253,0,10,0,253,10,10,10,0,10,0,105,105,105,105,0,81,81,81,81,81,81,81,81,105,105,105,105,105,105,105,105,105,105,105,105,105,105,204,204,204,0,165,0,133,0,0,165,165,165,165,0,0,0,105,105,105,105,105,105,105,105,105,0,105,105,105,105,105,133,0,0,81,0,81,105,0,105,0,105,0,81,81,81,81,81,81,105,105,105,105,0,0,105,105,105,105,105,105,105,0,81,81,105,105,105,0,105,105,0,0,0,0,0,0,0,0,133,165,165,0,0,105,0,0,0,41,81,105,50,0,0,0
0,0,0,0,0,0,0,0,0,0,0,0,0,0,0,0,0,0,0,0,0,0,0,0,0,0,0,0,0,0,0,0,0,0,0,0,0,0,0,174,174,174,0,0,0,180,180,0,0,0,0,0,0,194,194,194,194,0,0,0,0,0,0,0,230,230,230,0,220,0,220,220,220,0,0,0,0,220,220,0,210,210,0,210,220,220,220,220,220,220,220,220,220,220,220,220,220,0,0,0,241,241,0,0,60,60,60,0,0,250,0,0,0,0,0,0,0,60,60,60,60,60,60,60,60,60,60,0,0,0,0,0,0,0,0,0,0,0,210,210,210,210,210,210,210,0,0,0,210,210,0,0,0,0,198,0,0,0,0,0,0,0,0,0,0,0,0,0,187,202,202,202,202,202,202,202,210,0,0,253,0,0,241,241,241,241,241,241,241,241,241,241,241,0,0,230,230,230,0,241,253,253,0,241,241,241,81,81,81,81,81,81,81,81,81,0,0,0,0,0,10,0,253,253,253,253,253,253,253,253,253,253,253,253,253,253,253,253,253,253,253,253,253,253,253,253,0,253,253,253,253,253,253,253,10,0,0,253,253,253,253,253,253,253,0,241,241,253,0,241,253,253,10,10,10,10,10,0,0,105,105,105,0,81,81,81,81,81,81,81,105,105,105,105,105,105,105,105,105,105,105,105,105,105,105,204,204,204,0,165,0,0,0,0,165,165,165,165,0,0,0,133,0,105,105,105,105,105,105,105,0,105,105,105,105,105,105,133,0,0,81,81,81,81,105,0,0,81,81,81,81,81,81,81,105,105,105,105,105,0,105,105,105,105,0,105,105,0,81,81,105,105,105,105,105,105,0,0,0,0,0,0,0,0,133,165,165,0,0,105,0,0,0,0,41,81,250,0,0,0
0,0,0,0,0,0,0,0,0,0,0,0,0,0,0,0,0,0,0,0,0,0,0,0,0,0,0,0,0,0,0,0,0,0,0,0,0,0,0,0,0,0,0,0,0,0,180,0,0,0,0,0,0,194,194,194,194,194,0,0,0,0,0,230,230,230,230,230,230,0,220,220,0,210,0,0,0,0,210,210,210,210,210,210,0,220,220,220,220,220,220,220,220,220,0,0,0,0,0,241,241,0,0,0,210,60,210,210,250,250,250,250,0,0,250,250,250,0,0,0,0,0,0,60,60,60,0,0,0,0,0,0,0,0,0,0,0,0,210,210,210,210,210,210,210,210,210,210,210,210,0,0,0,0,0,0,0,0,0,0,10,10,0,0,41,41,0,0,0,0,0,0,41,0,0,0,253,253,253,253,253,253,253,0,241,241,241,241,241,241,241,241,241,0,241,241,241,253,253,0,253,253,0,241,0,81,81,81,81,81,81,81,81,81,81,0,0,0,0,10,10,0,253,253,253,253,253,253,253,253,253,253,253,253,253,253,253,253,253,253,253,253,253,253,253,253,0,253,253,253,253,253,253,253,10,10,0,253,253,253,253,253,253,253,253,253,253,0,253,253,253,0,0,0,10,0,10,10,0,253,81,105,0,81,81,81,81,81,81,81,105,105,105,105,105,105,105,105,105,105,105,105,105,105,105,204,204,204,204,0,0,0,0,133,0,133,133,133,0,0,0,105,0,105,105,105,105,105,105,0,81,105,105,105,0,105,105,0,0,81,81,81,81,81,0,0,81,81,81,81,81,81,81,105,105,105,105,105,0,105,0,105,105,105,0,105,105,105,105,105,105,105,105,105,105,105,0,0,0,0,0,0,0,0,105,133,133,0,105,0,0,0,0,0,25,81,165,0,0,0
0,0,0,0,0,0,0,0,0,0,0,0,0,0,0,0,0,0,0,0,0,0,0,0,0,0,0,0,0,0,0,0,0,0,0,0,0,0,0,0,0,0,0,0,0,180,180,180,0,0,0,0,0,194,194,194,194,0,0,0,0,0,0,230,230,230,0,220,230,0,220,220,220,0,0,220,220,0,210,210,210,210,210,210,210,220,220,220,220,220,220,220,220,0,220,0,0,0,0,241,0,0,0,210,210,210,210,210,250,250,250,0,0,0,0,0,0,0,0,0,0,0,0,0,60,0,220,220,220,0,0,230,0,0,0,0,0,0,210,210,210,210,210,210,210,210,210,0,210,210,210,0,0,0,241,0,0,241,241,25,25,0,0,41,41,41,41,41,41,0,25,25,41,0,0,25,253,0,253,0,253,0,0,0,241,241,0,241,241,241,241,241,241,0,0,0,0,253,0,0,0,0,10,25,25,25,81,81,81,81,81,81,81,0,0,0,0,0,253,10,10,10,10,10,10,0,253,253,253,253,253,253,253,253,253,253,253,253,253,253,253,253,253,253,253,253,0,253,253,253,253,253,253,253,253,253,253,253,253,253,253,253,253,253,253,253,253,0,253,0,253,253,0,0,10,0,10,0,253,253,0,0,81,81,81,81,81,81,81,105,105,105,105,105,105,105,105,105,105,105,105,105,105,204,204,204,204,204,0,0,0,0,0,0,0,0,133,133,0,0,0,105,0,105,105,105,105,105,0,81,81,105,105,105,105,105,105,105,0,0,0,81,81,81,0,0,81,81,81,81,81,81,81,105,105,105,105,105,0,0,0,105,0,105,0,0,105,105,105,105,105,105,105,105,105,133,0,0,0,0,0,0,0,0,0,0,0,0,0,0,0,0,0,0,253,25,250,0,0,0
0,0,0,0,0,0,0,0,0,0,0,0,0,0,0,0,0,0,0,0,0,0,0,0,0,0,0,0,0,0,0,0,0,0,0,0,0,0,0,168,0,0,0,0,180,180,180,180,0,0,202,202,0,194,194,194,194,194,0,0,0,0,0,0,230,230,0,220,220,220,220,220,220,220,220,220,0,210,210,210,210,210,210,210,210,210,220,220,220,220,220,220,220,220,220,0,253,0,0,241,241,0,0,0,0,210,210,210,0,202,0,0,0,0,0,0,0,0,0,0,0,0,0,0,0,0,0,220,220,241,241,0,0,0,0,0,0,210,210,210,210,210,210,210,210,210,210,210,220,0,210,210,0,202,0,202,0,0,0,0,0,0,211,0,211,211,0,41,0,0,10,25,0,0,0,0,253,0,0,0,0,0,0,0,0,10,10,0,0,0,250,250,0,250,0,0,0,0,0,0,0,0,25,25,25,25,0,0,81,81,81,81,0,0,0,0,0,253,253,10,10,0,253,253,10,0,253,253,253,253,253,253,253,253,253,253,253,253,253,253,253,253,0,241,241,241,241,241,241,253,253,253,253,253,253,253,253,253,253,253,253,253,0,241,0,241,253,0,253,0,253,253,10,0,10,0,10,0,253,253,253,253,0,81,81,81,81,81,81,105,105,105,105,105,105,105,105,105,105,105,105,105,105,204,204,204,204,204,0,0,0,133,0,0,133,165,165,165,0,0,0,105,105,105,105,105,105,105,0,81,81,105,0,105,0,105,0,0,0,0,0,81,81,81,81,0,0,81,81,81,81,81,81,81,105,105,105,105,0,133,0,0,0,0,105,133,0,105,105,105,105,105,105,105,105,105,105,0,0,0,0,0,0,0,0,0,0,0,0,0,0,0,0,0,0,253,105,0,0,0
0,0,0,0,0,0,151,0,0,0,0,0,0,0,0,0,0,0,0,0,0,0,0,0,0,0,0,0,0,0,0,0,0,0,0,0,0,0,168,168,174,180,0,180,180,180,180,180,0,0,202,0,194,194,194,194,194,0,202,0,0,0,0,180,220,230,230,230,230,230,180,0,220,220,220,220,220,0,210,210,210,210,210,0,210,210,220,220,220,220,220,220,220,0,230,230,230,253,0,0,241,0,0,25,210,210,25,210,0,0,220,10,0,253,0,0,0,0,0,0,0,0,0,0,0,0,0,0,220,230,241,241,0,0,0,0,0,0,210,210,210,210,210,210,210,0,210,0,210,210,210,241,241,241,0,241,0,0,0,0,0,211,211,0,211,211,41,0,0,10,10,10,0,0,0,0,253,0,0,0,0,0,0,0,0,0,0,0,0,0,204,204,0,0,0,0,0,0,0,0,0,0,0,25,25,41,0,0,41,41,41,41,41,0,0,0,253,253,253,253,10,10,10,0,253,10,241,253,253,253,0,253,253,253,253,0,253,0,253,253,253,0,241,241,241,241,241,241,241,253,253,0,253,253,253,253,253,253,253,253,253,253,0,241,241,241,241,241,241,0,241,253,10,0,253,0,0,0,253,253,253,253,253,81,81,81,81,81,81,105,105,105,105,105,105,105,105,105,105,105,105,105,105,204,204,204,204,204,0,0,133,133,0,165,0,165,165,165,0,0,105,105,105,105,105,105,105,105,0,81,81,0,105,105,105,0,105,0,0,81,81,0,81,81,81,81,105,0,81,81,81,81,81,81,105,105,105,105,0,133,0,133,133,133,0,105,105,133,0,105,105,105,105,105,105,105,105,105,0,0,0,0,0,0,0,0,0,0,0,0,0,0,0,0,0,0,105,0,0,0
0,0,0,0,0,0,151,0,0,0,0,0,0,0,0,0,0,0,0,0,0,0,0,0,0,0,0,0,0,0,0,0,0,0,0,0,0,0,0,174,0,168,0,180,180,180,180,0,0,0,194,0,194,202,0,194,194,0,202,202,0,0,0,0,180,0,220,220,220,220,220,220,220,220,220,220,220,0,210,210,210,210,210,220,0,220,220,220,220,220,220,220,0,230,230,230,230,0,0,241,241,0,0,0,0,202,202,210,0,220,220,10,10,0,0,0,0,0,0,0,0,0,0,0,0,230,230,0,220,220,220,0,0,0,0,0,0,0,0,0,0,210,210,210,210,210,210,210,210,210,210,241,241,60,0,81,0,0,0,0,0,211,211,211,211,211,41,0,0,10,10,10,0,0,0,0,0,0,0,0,0,0,0,0,0,0,0,0,0,0,0,0,0,0,0,0,0,0,0,0,0,0,0,25,25,41,41,41,41,41,41,41,41,41,0,0,0,253,253,253,253,253,253,253,253,253,253,253,253,253,253,253,253,253,253,253,253,253,0,241,0,241,241,241,241,241,241,241,241,241,253,253,253,253,253,253,253,253,253,253,253,253,253,253,253,0,241,241,241,0,241,0,241,241,0,10,0,253,253,253,253,253,253,253,253,253,81,81,105,105,105,105,105,105,105,105,105,105,105,105,105,0,204,204,204,204,204,204,0,0,133,133,0,133,0,165,165,165,165,0,0,105,105,105,105,105,0,105,0,0,0,0,0,0,81,0,0,0,0,25,0,81,81,81,81,81,0,81,81,81,81,81,81,81,105,105,105,105,0,133,0,133,133,133,133,0,0,105,105,105,0,0,105,0,105,105,105,105,105,105,0,0,0,0,0,0,0,0,0,0,0,0,0,0,0,0,210,0,0,0
0,0,0,0,0,0,151,0,0,0,0,0,0,0,0,0,0,0,0,0,0,0,0,0,0,0,0,0,0,0,0,0,0,0,0,0,0,0,0,0,174,0,180,180,180,180,180,180,0,194,194,0,194,194,194,194,194,194,202,0,0,0,0,187,0,0,180,180,187,194,220,220,220,220,220,220,220,0,210,210,210,210,210,220,220,0,0,0,0,220,230,230,0,0,0,230,230,230,0,241,0,230,0,25,0,202,202,202,202,220,220,10,0,253,253,0,0,0,0,0,0,0,0,0,0,230,230,230,0,220,220,0,0,0,0,187,210,210,220,220,0,220,0,210,0,210,210,210,210,210,210,241,241,81,81,81,81,0,0,0,0,211,211,211,211,253,10,10,10,10,10,10,10,0,0,0,0,0,0,0,0,0,0,0,0,0,0,0,0,0,0,0,0,0,0,0,0,0,0,0,0,0,0,25,25,41,41,41,41,41,41,41,41,0,0,0,253,253,253,253,253,253,253,253,253,0,241,241,253,253,253,253,253,253,253,253,253,253,253,0,0,241,241,241,241,241,241,241,241,241,241,0,241,0,253,253,0,253,253,253,0,241,241,241,241,241,241,241,241,241,0,241,0,241,0,0,10,0,253,0,253,253,253,253,253,253,0,253,105,105,105,105,230,105,105,105,105,105,105,105,105,105,105,204,204,204,0,0,133,133,133,133,133,133,0,165,0,133,133,0,105,105,105,105,105,105,105,105,0,81,0,0,0,0,0,0,0,41,0,41,0,0,81,81,81,81,0,81,81,81,81,81,81,81,81,105,105,105,105,105,0,105,133,133,133,0,0,0,105,105,105,105,105,105,165,0,0,0,0,105,0,0,0,0,0,0,0,0,0,0,0,0,0,0,0,0,0,0,0,0
0,0,0,0,0,227,0,0,0,0,0,0,0,0,0,0,0,0,0,0,0,0,0,0,0,0,0,0,0,0,0,0,0,0,0,0,0,0,0,0,0,0,180,180,180,180,180,180,0,194,0,194,194,194,194,194,194,0,202,0,0,0,0,0,0,0,0,194,202,210,180,0,220,220,0,220,220,0,210,220,220,220,220,220,230,230,0,0,0,230,230,230,0,230,230,230,230,230,230,230,0,230,25,25,0,202,202,202,202,220,0,10,0,253,0,0,0,0,0,0,0,0,194,194,220,0,220,220,220,230,230,230,0,0,0,210,210,210,210,220,0,220,0,210,220,220,0,210,210,210,0,0,0,0,81,81,81,81,81,81,81,81,0,0,0,0,10,10,10,10,10,10,10,0,253,253,0,0,0,0,0,0,0,244,0,0,0,0,0,0,0,0,0,0,0,0,0,0,0,0,0,0,0,0,25,25,41,41,41,41,41,41,41,41,0,0,0,253,253,0,241,241,241,241,241,241,241,241,0,0,253,253,253,0,253,253,253,253,253,253,0,241,241,241,241,241,241,241,241,241,241,241,241,0,241,253,253,253,0,241,241,241,241,241,241,241,241,241,241,241,241,241,0,10,10,0,0,0,0,253,253,25,25,25,25,0,0,253,0,105,0,230,230,230,230,105,105,105,105,105,105,0,0,204,204,204,10,10,133,133,133,133,133,0,0,204,133,204,0,105,0,105,105,105,105,105,105,105,0,81,0,0,0,0,0,41,0,41,0,41,0,0,81,0,81,81,0,81,81,81,81,81,81,81,81,81,105,105,105,105,133,133,133,133,133,133,0,0,105,0,105,105,105,105,105,165,0,0,0,0,0,0,0,0,0,0,0,0,0,0,0,0,0,0,0,0,0,0,0,0
0,0,0,0,0,227,0,0,0,0,0,0,0,0,0,0,0,0,0,0,0,0,0,0,0,0,0,0,0,0,0,0,0,0,0,0,0,0,0,174,174,0,0,180,0,180,0,180,0,194,0,187,194,194,194,194,194,202,0,0,0,0,0,180,0,0,0,0,210,194,210,210,210,210,220,220,220,220,0,210,220,220,220,230,230,0,0,230,230,230,0,230,230,230,0,230,230,230,230,230,230,230,25,25,0,202,210,0,202,0,0,10,0,253,253,0,0,0,0,0,0,0,194,194,230,0,230,0,220,220,0,220,220,0,0,210,210,210,210,210,0,0,220,0,220,220,220,220,220,0,0,0,0,0,0,105,0,0,210,0,210,81,210,0,253,0,0,10,0,10,10,0,253,253,253,0,0,0,230,230,0,0,0,0,0,0,151,0,0,0,0,0,0,0,0,0,0,0,0,0,0,0,0,25,0,25,41,41,41,41,41,41,41,41,0,0,0,253,253,0,241,241,241,241,241,241,241,241,0,0,241,0,0,241,0,253,253,253,253,253,0,241,241,241,241,241,241,241,241,241,241,241,241,241,0,253,253,253,0,241,241,241,241,241,241,241,241,241,241,241,241,241,253,60,60,0,0,0,0,0,25,25,25,25,25,25,25,0,0,0,0,241,241,0,230,230,0,105,0,0,0,0,0,204,204,204,0,10,133,133,133,133,133,133,0,204,133,0,0,105,105,105,105,105,105,105,105,105,0,0,0,0,0,41,0,0,0,0,0,10,230,230,0,0,105,0,0,81,81,81,81,81,81,81,81,81,105,105,105,105,105,133,0,133,0,0,133,133,0,105,0,0,0,105,105,105,165,165,0,0,0,0,0,0,0,0,0,0,0,0,0,0,0,0,0,0,105,0,0,0
0,0,0,0,0,227,0,0,0,0,0,0,0,0,0,0,0,0,0,0,0,0,0,0,0,0,0,0,0,0,0,0,0,0,0,0,0,0,0,0,0,0,0,174,0,174,0,180,0,194,0,187,187,194,194,194,0,0,0,0,0,0,0,0,0,0,0,0,0,0,180,180,0,210,210,220,220,220,220,220,230,0,220,230,230,230,0,230,230,230,0,230,0,230,0,230,230,230,0,230,230,230,0,25,0,202,202,202,202,202,0,0,0,0,0,0,0,180,120,120,165,230,230,230,230,230,230,230,0,230,0,0,0,0,0,0,210,210,210,210,210,220,220,220,220,220,220,0,0,0,0,0,0,0,0,0,0,194,194,0,0,10,10,0,0,241,253,253,253,253,253,253,253,253,253,0,0,0,0,0,0,0,0,0,0,0,151,151,151,151,0,0,0,0,0,0,0,0,0,0,165,0,0,0,0,25,0,25,25,41,41,41,41,41,0,0,0,253,253,253,0,241,241,241,241,0,0,0,0,0,0,230,230,253,0,253,253,253,253,253,0,241,241,241,241,241,241,241,241,241,241,241,241,241,253,0,253,253,253,253,0,241,241,241,241,241,241,241,241,241,0,253,10,10,60,25,0,0,0,0,25,25,25,0,10,10,10,10,10,10,0,0,0,230,230,241,0,0,0,0,0,0,0,204,0,0,0,10,10,133,133,133,133,0,0,0,133,133,133,0,105,105,105,105,105,105,105,105,105,0,0,0,60,0,0,0,0,0,0,0,241,241,0,81,105,0,105,0,0,81,81,81,81,81,81,81,105,105,105,105,105,105,0,133,133,0,0,0,0,0,0,105,105,0,105,105,133,165,0,0,0,0,0,0,0,0,0,0,0,0,0,0,0,0,0,0,0,0,0,0
0,0,0,0,0,227,0,0,0,0,0,0,0,0,0,0,0,0,0,0,0,0,0,0,0,0,0,0,0,0,0,0,0,0,0,0,0,0,0,0,0,0,0,174,0,0,174,0,0,187,187,187,0,187,194,194,0,194,0,0,194,0,0,187,0,0,180,180,0,180,180,220,220,220,220,220,220,220,220,230,0,0,230,230,230,230,230,230,230,230,230,230,0,0,0,0,230,0,0,0,0,0,220,25,0,202,202,202,202,202,0,0,0,0,0,0,0,180,120,187,230,133,230,230,230,230,230,230,230,0,220,0,0,0,0,0,0,0,0,0,0,220,220,220,220,220,220,0,0,253,0,0,0,0,0,0,0,0,0,0,202,202,0,241,10,10,0,0,253,253,253,253,151,151,151,151,151,0,230,230,0,0,0,0,0,151,151,151,0,0,0,0,0,0,0,0,0,0,0,165,165,165,0,0,0,0,81,81,25,0,41,0,41,41,0,0,0,253,253,0,241,241,241,241,0,0,0,0,0,0,230,230,241,241,241,241,241,241,253,0,241,241,241,241,241,241,241,241,241,241,241,241,241,253,0,253,0,253,253,253,0,241,241,241,241,241,241,241,241,241,0,253,10,41,41,0,41,41,0,0,0,25,25,25,0,0,0,10,10,0,0,241,241,241,241,0,241,241,0,0,0,0,0,0,0,0,0,10,10,133,133,133,133,0,133,165,165,0,165,105,0,105,105,105,105,105,105,105,105,105,0,0,60,0,0,0,0,0,0,0,241,105,105,105,105,0,81,81,81,81,81,81,81,81,105,0,105,105,105,105,105,105,0,81,133,133,0,0,0,133,0,105,105,105,105,105,105,133,133,0,0,0,0,0,0,0,0,0,0,0,0,0,0,0,0,0,0,0,0,0
0,0,0,0,0,227,0,0,0,0,0,0,0,0,0,0,0,0,0,0,0,0,0,0,0,0,0,0,0,0,0,0,0,0,0,0,0,168,0,0,0,0,0,174,174,174,0,0,0,187,187,187,187,187,194,194,194,0,0,0,0,0,180,187,0,0,187,0,187,0,180,220,220,220,220,220,220,220,220,230,0,230,230,230,230,230,230,230,230,230,230,0,0,0,0,0,0,0,0,0,194,194,0,25,25,25,202,202,202,202,0,0,0,0,0,0,0,0,120,120,0,120,0,50,230,230,230,230,230,0,0,0,0,0,0,0,0,0,0,0,0,220,220,220,220,220,220,220,253,253,0,0,0,0,0,0,0,202,0,0,202,202,210,0,241,10,10,10,0,253,151,151,151,151,151,151,151,230,230,244,244,244,151,151,0,151,151,151,0,0,0,0,0,0,0,0,0,0,0,0,165,165,165,0,0,0,0,60,0,0,41,60,0,41,0,0,0,253,0,0,241,241,0,0,0,0,0,0,230,0,230,230,241,241,241,241,241,241,241,241,241,241,241,241,241,241,241,241,241,241,241,241,241,0,230,230,0,230,230,0,241,241,241,241,241,241,241,241,241,241,0,10,10,0,25,41,41,41,0,0,0,0,253,25,0,0,25,0,10,0,0,241,253,253,0,253,253,25,0,0,0,0,0,0,0,0,0,0,10,133,133,133,133,0,133,165,165,0,165,105,133,0,105,105,105,105,105,105,105,105,105,0,0,81,0,0,0,0,105,105,0,105,105,105,105,105,105,105,105,0,81,81,81,81,105,0,105,105,105,105,105,105,0,81,81,133,133,133,133,133,0,105,105,105,105,105,105,105,105,105,105,0,0,0,0,0,0,0,0,0,0,0,0,0,0,0,0,0,0,0
0,0,0,0,0,0,151,0,0,0,0,0,0,0,0,0,0,0,0,0,0,0,0,0,0,0,0,0,0,0,0,0,0,0,0,0,0,0,0,0,0,0,0,174,174,174,0,187,187,187,187,187,0,187,194,194,0,0,0,0,0,0,0,0,187,187,187,0,187,0,180,180,187,0,180,220,220,220,220,230,0,230,230,230,230,230,230,230,230,230,230,230,230,230,0,241,0,0,0,0,0,194,194,25,25,25,202,202,202,10,25,41,0,25,0,0,0,0,0,0,0,0,230,50,50,230,230,230,230,0,0,0,0,0,0,0,0,0,0,0,0,220,220,220,220,220,220,220,0,0,0,0,0,0,0,0,0,0,202,202,0,202,202,0,241,10,10,10,0,151,151,151,151,151,151,151,0,230,230,0,0,151,151,151,151,151,151,151,151,151,0,0,0,0,0,0,0,0,0,0,165,165,0,0,0,180,81,81,0,0,60,60,0,0,0,0,253,0,0,0,0,241,241,0,0,0,230,230,230,230,230,230,230,241,241,241,241,0,241,241,241,241,241,241,241,241,241,241,241,241,241,241,241,241,0,230,230,230,230,0,241,241,241,241,241,241,241,241,241,241,0,0,10,25,41,41,41,0,0,0,0,25,0,25,0,25,25,0,0,0,241,0,241,253,0,241,253,0,0,0,0,0,0,0,0,0,0,253,10,0,253,133,133,133,133,165,165,165,165,0,133,0,105,105,105,105,105,105,105,105,105,105,105,250,0,0,0,0,0,105,105,105,105,105,105,105,105,105,0,0,81,0,81,81,81,105,105,0,105,105,0,81,81,81,0,0,81,133,133,133,133,0,105,105,105,105,105,105,105,105,105,0,0,0,0,0,0,0,0,0,0,0,0,0,0,0,0,0,0,0
0,0,0,0,0,0,151,0,0,0,0,0,0,0,0,0,0,0,0,0,0,0,0,0,0,0,0,0,0,0,0,0,0,0,0,0,0,0,0,0,0,0,0,0,174,0,0,187,187,0,187,187,0,187,194,194,194,0,0,0,0,0,0,187,187,187,187,194,0,0,187,0,0,0,210,210,210,220,230,230,230,230,230,230,230,230,230,230,230,230,230,230,230,241,241,241,253,0,241,241,253,0,0,10,10,0,253,0,0,180,0,41,0,0,0,0,0,0,0,0,230,230,230,0,0,230,230,230,230,230,230,230,241,253,10,10,0,0,0,0,0,220,180,0,220,220,0,220,0,0,0,0,0,0,0,0,0,0,202,202,0,202,202,202,241,241,241,241,241,241,241,241,241,0,0,0,230,230,230,0,0,0,0,0,0,151,0,0,81,0,81,81,0,230,202,202,0,0,0,0,0,25,25,0,0,0,0,81,0,60,60,120,120,0,0,0,0,0,0,0,0,0,0,0,0,0,0,0,220,230,230,230,230,230,241,241,0,230,253,0,241,241,241,241,241,241,241,241,241,241,241,241,241,241,0,230,230,230,230,230,241,241,241,241,241,241,241,241,241,241,241,0,230,230,41,41,0,0,10,0,25,25,0,25,25,25,25,25,0,0,0,0,0,0,241,10,0,0,0,0,0,0,0,0,253,253,253,253,253,253,253,253,133,133,133,165,165,165,165,0,133,0,105,105,105,105,105,105,105,105,105,105,105,250,0,0,0,0,105,105,133,133,0,105,105,105,105,105,105,0,0,81,81,81,81,81,81,105,0,0,81,105,0,81,81,81,133,133,133,133,133,0,105,0,105,105,105,105,133,133,0,0,0,0,0,0,0,0,0,0,0,0,0,0,0,0,0,0,0,0
0,0,0,0,0,0,151,0,0,0,0,0,0,0,0,0,0,0,0,0,0,0,0,0,0,0,0,0,0,0,0,0,0,0,0,180,180,0,0,0,0,0,0,168,0,174,0,0,194,0,187,187,187,0,0,194,194,0,187,187,187,187,187,187,187,187,187,187,0,187,187,0,0,0,0,0,210,0,210,230,0,0,230,230,230,230,230,230,230,230,230,230,230,241,241,241,241,241,241,241,241,0,253,0,0,241,241,253,180,180,25,41,41,41,41,0,0,0,0,0,230,230,230,230,230,230,230,230,230,230,0,230,230,230,0,0,10,10,220,220,0,0,0,220,220,253,253,0,0,0,0,0,0,0,0,0,0,202,202,202,202,202,202,202,202,0,0,0,241,0,0,230,230,230,230,230,230,230,230,230,0,0,0,0,0,0,0,0,0,151,0,0,81,210,210,210,0,0,0,0,0,0,0,0,0,0,0,60,25,60,60,60,0,0,0,0,0,0,0,0,0,0,0,0,0,0,0,0,0,230,230,230,230,230,0,230,0,0,0,0,230,241,241,241,241,241,241,241,241,241,241,241,241,0,230,230,230,230,230,230,241,241,241,241,241,241,241,241,241,241,0,10,10,230,0,25,25,25,25,25,25,25,25,25,25,25,25,25,0,0,0,0,253,253,253,10,10,0,253,0,0,0,0,253,253,253,253,253,253,253,253,253,0,0,0,133,133,133,133,133,0,105,105,105,105,105,105,105,105,105,105,105,105,0,0,0,0,0,105,105,133,133,0,105,105,105,105,105,105,0,0,0,81,81,81,81,81,81,0,0,81,105,0,81,81,81,81,133,133,133,133,0,105,105,133,133,133,133,0,105,105,0,0,0,0,0,0,0,0,0,0,0,0,0,0,0,0,0,0,0
0,0,0,0,0,0,0,241,0,0,0,0,0,0,0,0,0,0,0,0,0,0,0,0,0,0,0,0,0,0,0,0,0,0,0,180,180,180,0,0,0,0,0,0,168,0,0,0,194,0,187,187,187,0,0,194,194,0,187,187,187,187,187,187,187,187,187,0,180,187,187,0,0,0,210,210,210,210,0,0,0,230,230,230,230,230,230,230,230,230,230,230,230,241,241,241,241,241,241,241,241,241,253,253,253,253,253,0,253,180,25,41,41,41,41,41,0,0,0,0,0,230,230,230,230,230,230,230,230,230,230,230,230,241,241,0,0,10,0,253,0,0,0,253,253,253,253,253,10,10,0,10,0,230,0,0,0,0,202,202,202,202,202,202,202,0,0,0,241,241,0,230,230,230,0,0,230,230,0,0,0,0,0,0,0,0,0,0,0,0,0,0,0,0,0,0,0,0,0,0,0,0,0,0,0,81,0,60,0,60,60,60,0,0,0,0,0,241,0,0,0,0,0,0,0,0,0,0,0,0,230,230,230,241,241,241,0,0,241,241,241,241,241,241,241,241,241,241,241,241,241,241,241,241,0,230,230,230,241,0,241,241,241,241,241,241,241,241,241,241,10,10,10,10,25,0,25,0,0,25,25,25,0,10,0,10,25,25,25,0,0,253,0,253,0,253,253,253,0,25,25,25,0,0,253,253,253,253,253,253,253,253,105,0,0,0,133,133,133,133,0,105,105,105,105,105,105,105,105,105,105,105,105,133,0,105,0,0,105,105,133,133,0,105,105,105,105,105,105,0,81,81,81,81,81,81,81,81,0,0,81,0,60,81,81,81,81,133,133,133,133,0,105,105,105,105,105,105,105,105,105,0,0,0,0,0,0,0,0,0,0,0,0,0,0,0,0,0,0,0
0,0,0,0,0,0,0,241,0,0,0,0,0,0,0,0,0,0,0,0,0,0,0,0,0,0,0,0,0,0,0,0,0,0,180,180,180,180,180,0,0,0,168,0,168,0,0,194,194,194,194,202,202,202,202,0,194,0,187,187,187,187,187,187,187,187,187,0,0,0,0,0,0,210,0,210,194,210,0,0,230,230,230,230,230,230,230,230,230,230,230,230,241,241,241,241,241,241,241,241,241,253,253,253,10,0,25,0,41,41,0,41,0,41,41,41,0,0,0,0,0,0,230,230,0,230,230,230,230,230,230,230,230,230,230,230,230,253,0,253,0,220,0,220,0,253,220,253,0,253,0,0,230,230,0,0,0,202,202,202,0,202,0,202,202,210,0,0,241,241,241,241,241,241,241,0,241,0,230,0,0,0,0,0,0,0,0,0,0,0,0,0,227,0,0,0,0,0,0,0,0,0,0,0,0,0,0,0,0,0,0,194,0,0,0,0,0,0,0,0,0,0,0,0,0,0,0,0,230,230,230,230,241,241,241,241,241,241,241,241,241,241,241,241,241,241,241,241,241,241,241,241,241,241,0,230,230,230,241,0,241,241,241,241,241,241,241,241,0,0,10,10,10,10,25,25,0,0,10,10,0,10,10,10,10,10,25,0,10,0,0,0,253,253,253,253,10,10,0,253,25,0,0,253,253,253,253,253,253,253,253,253,253,0,0,105,133,133,133,0,105,105,105,105,105,105,105,105,105,105,105,105,105,105,105,133,133,133,165,165,165,0,133,0,0,0,0,105,0,81,0,81,81,81,105,105,105,0,0,0,0,0,0,81,81,81,81,81,81,0,0,133,133,0,133,133,133,133,0,105,105,0,0,0,0,0,0,0,0,0,0,0,0,0,0,0,0,0,0,0
0,0,0,0,0,0,0,0,244,0,0,0,0,0,0,0,0,0,0,0,0,0,0,0,0,0,0,0,0,0,0,0,0,0,0,180,180,180,180,0,0,0,0,168,168,0,0,194,194,194,194,202,0,202,202,0,194,194,0,0,187,187,187,187,187,187,187,0,194,0,0,0,0,0,0,194,194,194,210,0,230,230,230,230,230,230,230,230,230,230,230,230,241,241,241,241,241,241,241,241,241,241,253,253,253,253,10,41,41,41,41,41,41,41,41,41,0,60,0,0,0,0,0,0,0,230,230,230,230,230,230,230,230,0,0,0,0,0,0,220,220,220,220,220,0,253,220,253,253,0,0,0,230,230,230,0,0,0,202,202,202,202,0,202,210,0,10,10,0,0,0,241,241,241,241,241,241,0,230,0,0,0,0,0,0,0,0,0,0,0,0,198,198,0,0,151,0,0,0,0,0,0,0,0,0,0,0,0,0,0,0,0,0,0,0,0,0,241,0,0,0,0,0,0,0,0,0,0,0,0,230,241,241,241,241,241,241,241,241,241,241,241,241,241,241,241,241,241,241,241,241,241,241,241,0,230,230,230,230,230,241,241,241,241,241,241,241,241,0,0,0,10,10,10,25,25,0,0,0,10,10,10,10,10,10,10,25,0,10,10,0,0,253,253,0,253,253,253,0,25,25,0,0,253,253,253,253,253,253,253,253,253,253,0,0,0,0,105,105,105,105,105,105,105,105,105,105,105,105,105,105,105,0,133,0,0,133,133,165,165,165,0,133,0,0,0,0,0,81,81,81,0,105,105,105,0,105,0,0,0,0,133,133,133,0,0,81,81,133,133,133,0,0,105,133,133,0,105,0,105,105,0,0,0,0,0,0,0,0,0,0,0,0,0,0,0,0,0,0,0
0,0,0,0,0,0,0,0,244,0,0,0,0,0,0,0,0,0,0,0,0,0,0,0,0,0,0,0,0,0,0,0,0,0,0,180,180,180,180,0,0,0,168,168,0,0,0,194,194,194,194,202,202,202,202,0,194,194,0,194,0,187,0,187,187,0,0,0,0,0,0,0,0,0,0,210,210,210,210,230,230,230,230,230,230,230,230,230,230,230,230,230,0,241,241,241,241,241,241,241,241,241,241,10,10,10,10,41,41,41,41,41,41,41,41,41,60,60,60,0,0,0,0,0,0,0,0,230,230,230,230,230,230,0,0,0,0,0,0,0,0,210,220,0,253,220,220,0,0,0,0,0,0,0,0,0,210,0,202,202,202,202,0,0,202,210,10,10,0,0,253,0,241,241,253,0,0,0,230,0,0,0,0,0,0,0,0,0,0,0,0,198,198,0,0,151,0,0,0,0,0,0,0,0,0,0,0,0,0,0,0,0,0,0,0,0,0,241,0,0,0,241,0,0,0,0,0,0,0,220,0,241,241,241,241,241,0,0,0,241,0,241,241,241,241,241,241,241,241,241,241,241,241,241,0,230,230,230,230,241,241,241,241,241,241,241,241,241,241,241,0,10,10,10,10,0,10,0,10,10,0,10,10,10,10,25,25,0,10,0,253,0,253,0,241,241,241,241,0,0,253,253,0,253,253,253,253,253,253,253,253,253,253,253,0,0,105,105,105,105,105,105,105,105,105,105,105,105,105,105,105,0,81,241,0,0,0,133,0,0,0,0,0,0,105,0,105,0,81,81,105,105,105,105,105,105,105,0,0,0,133,133,133,133,133,133,0,0,0,60,60,81,105,0,81,133,133,133,0,105,0,0,0,0,0,0,0,0,0,0,0,0,0,0,0,0,0,0,0,0
0,0,0,0,0,0,0,0,244,0,0,0,0,0,0,0,0,0,0,0,0,0,0,0,0,0,0,0,0,0,0,0,0,0,0,180,180,180,180,0,0,168,168,168,168,0,180,180,0,180,194,202,202,202,202,0,0,194,0,0,194,0,0,0,0,0,0,0,0,0,0,0,0,0,0,210,210,210,210,210,230,230,230,230,230,230,230,230,230,230,230,0,0,241,241,241,241,241,241,241,241,241,253,10,10,10,10,0,41,41,41,41,41,41,41,41,0,60,60,60,0,0,0,0,0,0,60,230,60,230,230,230,60,0,0,0,0,0,0,0,220,0,210,210,253,210,220,0,0,0,0,0,0,230,0,0,0,202,202,202,202,202,0,0,0,210,10,0,0,253,0,0,241,241,253,253,0,0,0,0,0,0,0,0,0,0,0,0,0,0,0,198,198,0,0,151,0,0,0,0,0,0,0,0,0,0,0,0,0,0,0,0,0,0,0,0,0,0,0,0,241,241,0,0,0,0,0,0,0,0,0,241,241,241,241,241,0,253,0,253,0,241,241,241,241,241,241,241,241,241,241,241,241,0,230,230,230,230,230,241,241,241,241,241,241,241,241,241,241,241,241,10,10,10,0,0,253,253,0,253,253,10,10,10,10,10,0,0,253,0,0,241,241,241,241,241,241,241,253,253,253,253,253,253,253,253,253,253,253,253,253,253,253,253,253,0,0,105,105,105,105,105,105,105,105,105,105,105,0,81,81,81,81,241,241,0,133,133,133,0,105,0,0,0,0,105,105,105,105,105,105,105,105,105,105,105,0,0,0,133,0,133,133,60,0,0,60,60,60,60,60,60,105,133,0,105,105,105,105,105,105,0,0,0,0,0,0,0,0,0,0,0,0,0,0,0,0,0,0,0
0,0,0,0,0,0,0,0,244,0,0,0,0,0,0,0,0,0,0,0,0,0,0,0,0,0,0,0,0,0,0,0,0,0,0,180,180,180,0,0,168,168,168,168,0,180,180,180,180,180,180,0,202,202,202,0,0,0,0,0,0,0,0,0,0,0,0,0,0,0,0,0,0,0,0,210,210,210,210,210,230,230,230,230,230,230,230,230,230,230,0,0,0,241,0,241,241,241,241,241,241,10,10,10,10,10,10,0,0,41,41,41,41,41,41,41,60,60,60,60,0,0,0,0,0,0,60,60,230,230,230,230,0,0,0,0,0,0,0,230,0,0,0,0,0,0,0,0,230,0,0,0,0,230,0,0,0,202,202,202,202,202,202,0,202,210,10,10,0,253,253,253,253,253,253,0,0,0,253,0,253,0,0,0,0,0,0,0,0,0,0,0,227,0,151,0,0,0,0,0,0,0,0,0,0,0,0,0,0,0,0,0,0,0,241,0,241,241,0,0,0,0,0,0,0,0,0,0,0,0,0,241,241,241,241,241,10,10,0,253,0,241,241,241,241,241,241,241,241,241,241,241,241,241,0,230,230,241,241,241,241,241,241,241,241,241,241,241,241,241,241,241,241,0,0,253,253,253,253,253,253,10,10,10,10,10,10,10,0,0,253,253,0,241,241,241,241,241,253,253,253,253,253,253,253,253,253,253,253,253,253,253,253,253,253,253,0,105,0,105,105,105,105,0,105,105,105,105,0,81,81,81,0,105,0,0,165,0,0,0,0,81,81,81,81,0,105,105,105,105,105,105,105,105,105,0,105,133,133,133,133,133,133,133,133,0,0,0,60,60,60,105,0,81,133,0,105,105,105,105,105,0,0,0,0,0,0,0,0,0,0,0,0,0,0,0,0,0,0,0
0,0,0,0,0,0,0,0,244,0,0,0,0,0,0,0,0,0,0,0,0,0,0,0,0,0,0,0,0,0,0,0,0,0,0,180,180,180,0,0,168,168,168,168,168,180,0,174,180,180,180,0,202,202,202,0,0,0,0,0,0,0,0,0,0,0,0,0,0,0,0,0,0,0,0,194,210,210,210,220,230,230,230,230,230,230,230,230,230,241,0,0,0,10,10,0,253,253,0,241,241,10,10,10,10,10,10,0,0,41,41,41,41,41,0,60,60,60,60,60,60,60,60,0,60,60,60,60,60,230,60,0,0,0,0,0,0,0,0,0,0,0,0,0,0,0,0,0,0,0,0,0,0,230,230,0,0,0,0,202,202,202,0,0,210,0,10,10,0,253,253,253,253,253,253,0,241,0,253,0,253,0,241,0,0,0,0,0,0,0,0,0,0,0,241,0,0,0,0,0,0,0,0,0,0,0,0,0,0,0,0,0,0,0,241,0,0,0,0,0,241,241,0,0,0,0,0,241,241,0,0,241,241,241,241,241,0,241,241,241,0,241,241,241,241,241,241,241,241,241,241,241,241,241,0,230,230,241,241,241,241,241,241,241,241,241,241,241,241,241,241,241,241,241,241,253,253,253,253,253,253,253,10,0,253,253,253,253,0,253,253,253,0,241,241,241,241,253,253,253,253,253,253,253,253,253,253,253,253,253,253,253,253,253,253,253,253,41,41,81,81,105,0,81,0,0,81,81,81,81,81,81,81,81,105,0,105,105,0,0,165,105,0,105,0,81,81,81,105,105,105,105,0,105,105,105,133,0,133,133,133,133,133,133,0,0,0,60,0,60,60,105,105,105,133,81,105,105,105,105,105,0,0,0,0,0,0,0,0,0,0,0,0,0,0,0,0,0,0,0
0,0,0,0,0,0,0,0,0,0,0,0,0,0,0,0,0,0,0,0,0,0,0,0,0,0,0,0,0,0,0,0,0,0,174,174,0,174,174,0,168,168,168,168,168,180,0,180,180,180,180,0,202,202,202,0,0,0,0,0,0,0,0,0,0,0,0,0,0,0,0,0,194,194,0,194,0,210,210,220,0,230,230,230,230,230,230,230,230,230,0,0,0,25,0,0,253,10,0,0,241,10,10,10,10,10,0,0,0,41,41,41,41,41,41,60,60,81,0,60,60,60,60,60,60,60,60,60,60,60,0,0,0,0,0,0,0,0,0,0,0,0,0,0,0,0,0,0,0,0,0,0,0,0,0,220,0,0,0,202,0,202,0,0,0,0,187,0,253,253,0,0,253,253,253,253,0,253,253,253,0,253,0,0,0,0,0,0,0,0,0,0,0,0,244,0,0,0,0,0,133,0,0,0,0,0,0,10,0,0,0,0,230,0,0,0,241,0,0,0,241,241,0,241,241,241,241,241,241,241,241,241,241,241,241,241,241,10,10,0,0,0,241,241,241,241,241,241,241,241,241,241,241,0,230,230,230,230,241,241,241,241,241,241,241,241,241,241,241,241,241,241,241,241,241,253,253,253,253,253,253,253,253,253,253,253,253,253,253,253,253,253,0,241,241,253,253,253,253,253,253,253,253,253,253,253,253,253,253,253,253,253,253,253,253,253,253,253,253,81,81,81,81,81,81,81,81,81,81,81,81,81,81,81,0,105,105,105,105,0,165,105,0,105,105,0,105,105,105,105,105,105,105,105,0,105,105,133,133,133,133,133,133,0,0,0,60,60,0,41,0,0,105,105,0,105,105,105,105,105,105,0,0,0,0,0,0,0,0,0,0,0,0,0,0,0,0,0,0,0
0,0,0,0,0,0,0,0,0,0,0,0,0,0,0,0,0,0,0,0,0,0,0,0,0,0,0,0,0,0,0,0,0,0,174,174,174,0,168,168,168,168,168,168,0,0,180,180,180,180,180,180,0,202,202,0,0,0,0,0,0,0,0,0,0,0,0,0,0,0,0,0,194,0,194,220,0,210,210,220,0,230,230,230,230,230,230,230,230,230,230,0,25,25,25,0,0,10,10,10,10,10,10,10,10,10,0,0,0,41,41,41,41,0,0,60,60,0,60,60,60,60,60,60,60,60,60,60,60,60,0,0,0,0,0,0,0,0,0,0,0,0,0,0,0,0,41,0,0,0,0,0,0,0,0,0,0,0,0,0,253,253,187,194,0,187,187,253,253,253,253,0,253,253,253,253,253,253,0,253,0,0,0,0,241,0,0,0,0,0,0,105,0,241,0,0,0,133,0,0,0,0,0,0,0,0,0,241,241,241,0,0,0,230,0,0,0,0,0,241,241,0,241,241,241,241,241,241,241,241,241,241,241,241,241,241,241,0,10,0,0,0,241,241,241,241,241,241,241,241,241,241,241,241,0,230,230,241,0,241,241,241,241,241,241,241,241,241,241,241,241,241,241,241,0,253,253,253,253,253,253,253,253,253,253,253,253,253,253,253,253,253,253,0,241,253,253,253,253,253,253,253,253,253,253,253,253,253,253,253,253,253,253,253,253,253,253,253,0,81,81,81,81,81,81,81,81,81,81,81,81,81,105,105,0,105,105,105,0,0,81,81,81,105,0,0,0,0,105,105,105,105,105,0,105,105,105,105,133,133,133,133,0,0,0,60,60,60,60,0,41,105,133,0,133,0,105,105,105,105,105,0,0,0,0,0,0,0,0,0,0,0,0,0,0,0,0,0,0,0
0,0,0,0,0,0,0,0,0,0,0,0,0,0,0,0,0,0,0,0,0,0,0,0,0,0,0,0,0,0,0,0,0,174,174,0,168,168,168,168,168,168,168,168,0,180,180,180,180,180,180,180,180,180,202,180,0,0,0,0,0,0,0,0,0,0,0,0,0,0,194,0,0,0,194,220,0,210,210,220,220,220,230,230,230,230,230,230,230,230,230,0,25,25,25,25,0,10,10,10,10,10,10,10,10,10,0,0,0,0,0,41,41,0,81,0,60,81,81,0,81,0,60,60,60,60,60,60,60,60,60,60,0,0,0,0,0,0,0,0,0,0,0,0,0,41,41,41,0,0,0,0,0,0,0,0,0,0,0,253,253,202,202,0,194,0,0,0,0,253,0,253,253,253,0,241,253,253,253,0,0,0,0,0,241,0,0,0,0,0,0,0,0,0,165,165,165,0,0,0,81,0,0,0,0,0,0,0,0,0,0,0,0,0,0,241,241,0,0,241,210,210,241,241,241,241,241,241,241,241,241,241,241,241,241,241,241,0,241,0,0,0,241,241,241,241,241,241,241,241,241,241,241,241,0,230,230,230,0,241,241,241,241,241,241,241,241,241,241,241,241,241,0,0,0,0,253,253,253,253,253,253,253,253,253,253,253,253,253,253,253,253,0,253,0,253,253,253,253,253,253,253,253,253,253,253,253,253,253,253,253,253,253,253,253,253,253,253,25,0,81,81,81,81,81,81,81,81,81,81,81,0,105,105,105,105,105,105,105,105,105,0,81,0,180,0,174,0,0,105,105,0,0,105,105,105,105,133,133,133,133,0,0,0,60,60,60,0,41,41,41,41,105,105,0,105,105,105,105,105,105,0,0,0,0,0,0,0,0,0,0,0,0,0,0,0,0,0,0,0
0,0,0,0,0,0,0,0,0,0,0,0,0,0,0,0,0,0,0,0,0,0,0,0,0,0,0,0,0,0,0,0,0,174,174,0,168,168,168,168,168,168,168,168,0,180,180,180,180,180,180,180,180,202,202,180,194,0,194,194,0,0,0,0,0,0,0,0,0,0,194,0,0,0,198,0,0,210,220,0,210,220,230,230,230,230,230,230,230,230,0,0,25,25,25,25,0,10,10,10,10,10,10,10,10,10,10,0,0,0,0,41,0,0,0,60,60,81,0,60,81,0,60,60,60,60,60,60,60,60,60,60,0,0,0,0,0,0,0,0,0,0,0,0,0,0,41,41,0,0,0,0,0,0,0,0,0,0,0,0,253,202,202,0,0,187,187,0,0,253,0,0,253,253,253,253,0,241,253,0,0,241,241,0,0,0,0,0,0,0,105,165,0,0,0,0,0,0,0,0,0,41,0,0,0,0,0,0,0,0,0,0,0,0,0,241,241,0,241,241,241,253,0,241,241,241,241,241,241,241,241,241,241,241,241,241,241,241,0,0,0,0,241,241,241,241,241,241,241,241,241,241,241,241,241,0,230,241,241,241,241,241,241,241,241,241,241,241,241,241,241,241,0,0,0,253,253,253,253,253,253,253,253,253,253,253,253,253,253,253,253,253,253,253,253,253,253,253,253,253,253,253,253,253,253,253,253,253,253,253,253,253,253,253,253,253,253,253,253,81,81,81,81,81,81,81,81,81,81,81,81,105,105,105,105,105,105,0,105,0,81,105,0,105,0,0,0,0,105,105,105,105,0,105,105,105,105,105,133,133,0,133,0,0,0,0,41,41,41,41,41,105,0,105,105,0,105,105,105,105,105,0,0,0,0,0,0,0,0,0,0,0,0,0,0,0,0,0,0,0
0,0,0,0,0,0,0,0,0,0,0,0,0,0,0,0,0,0,0,0,0,0,0,0,0,0,0,0,0,0,0,0,0,174,174,0,168,168,168,168,168,168,168,168,0,180,180,180,180,180,180,180,180,180,180,180,180,194,194,194,0,0,0,0,0,0,0,0,0,0,194,0,0,0,220,220,220,0,210,220,220,220,230,230,230,230,230,230,230,230,0,0,0,0,0,0,0,10,10,10,10,10,10,10,10,10,10,0,0,0,0,0,0,41,41,60,60,81,0,60,81,0,60,60,0,60,60,60,60,81,81,0,81,0,0,0,0,0,0,0,241,0,0,0,0,41,60,0,60,0,0,0,0,25,25,0,0,0,0,253,0,0,0,202,0,0,0,0,0,0,0,25,0,0,253,253,0,241,253,0,253,0,0,241,0,0,0,0,0,105,105,133,165,0,0,0,0,0,0,0,0,0,25,0,0,0,0,0,0,0,0,0,0,0,0,241,241,241,0,241,241,253,0,241,241,0,241,241,241,241,241,241,241,241,241,241,241,241,241,241,253,253,0,241,241,241,241,241,241,241,241,241,241,241,241,0,230,241,0,241,241,241,241,241,241,0,241,241,241,241,241,241,0,241,253,253,253,253,253,253,253,253,253,253,253,253,253,253,253,253,253,253,253,253,253,253,253,253,253,253,253,253,253,253,253,253,253,253,253,253,253,253,253,253,253,253,253,10,10,81,81,81,81,81,81,81,81,81,81,81,81,0,0,81,81,105,0,81,105,105,105,0,81,81,81,81,174,105,105,105,0,0,0,133,0,133,133,133,133,133,133,133,0,0,0,60,60,60,0,41,41,0,105,105,105,105,105,105,105,105,105,0,0,0,0,0,0,0,0,0,0,0,0,0,0,0,0,0,0,0
0,0,0,0,0,0,0,0,0,0,0,0,0,0,0,0,0,0,0,0,0,0,0,0,0,0,0,0,0,0,0,0,0,174,174,0,168,0,168,168,168,168,168,168,168,0,0,180,180,180,180,180,180,180,180,180,180,180,180,0,0,0,0,194,0,0,0,0,0,0,194,0,0,0,0,220,220,220,220,220,220,220,230,230,230,230,230,230,230,230,0,0,0,0,0,0,0,0,10,10,10,10,10,10,10,10,0,0,0,0,25,0,25,0,41,60,60,0,60,60,81,0,0,60,81,0,60,60,60,60,60,81,81,0,0,0,0,0,0,0,0,0,0,60,0,0,60,0,60,60,0,41,0,25,0,0,0,0,0,0,0,0,0,0,0,0,0,0,0,0,0,0,0,0,241,241,241,253,253,0,0,241,241,241,0,244,0,0,105,105,105,105,105,0,0,0,0,0,0,0,0,0,25,0,0,0,0,0,0,0,0,0,0,0,0,0,0,220,220,241,241,253,253,0,241,241,241,241,241,241,241,241,241,241,241,241,241,241,253,253,253,0,241,0,241,241,241,241,241,241,241,241,241,241,241,0,0,0,0,241,241,241,241,241,241,0,0,241,241,241,241,241,0,0,230,253,253,253,253,253,253,253,253,253,253,253,253,253,253,253,253,253,253,253,253,253,253,253,253,253,253,253,253,253,253,253,253,253,253,253,253,253,253,253,253,253,253,10,10,10,10,0,81,81,81,81,81,81,81,81,81,105,105,105,105,105,105,0,105,0,81,0,81,81,81,81,0,105,105,0,0,0,133,0,105,0,133,133,0,105,133,0,133,0,0,0,60,0,41,41,41,0,105,105,105,105,105,105,105,105,105,0,0,0,0,0,0,0,0,0,0,0,0,0,0,0,0,0,0,0
0,0,0,0,0,0,0,0,0,0,0,0,0,0,0,0,0,0,0,0,0,0,0,0,0,0,0,0,0,0,0,0,0,174,174,0,180,0,0,168,168,168,168,168,168,0,0,180,180,180,180,180,180,180,180,180,180,180,180,0,0,0,0,0,0,0,0,0,168,0,241,0,198,0,0,220,220,220,220,220,220,220,230,230,230,230,230,230,230,230,230,0,0,0,0,0,0,0,10,10,10,10,10,10,10,10,10,0,0,0,25,25,0,0,41,60,60,0,60,81,81,81,0,60,81,0,60,60,60,60,60,81,81,0,0,0,0,0,0,0,0,0,0,250,0,204,0,0,0,0,0,0,0,0,0,0,0,0,0,0,0,0,0,0,0,0,0,41,41,0,41,0,0,0,0,241,253,0,0,0,0,241,241,241,0,0,0,0,105,133,165,165,0,0,0,0,0,0,0,10,0,41,0,0,0,0,0,0,0,0,0,0,0,0,0,0,220,0,0,241,0,0,230,230,241,241,241,241,241,241,241,241,241,241,241,241,241,241,241,253,253,253,0,241,241,241,241,241,241,241,241,241,241,241,241,241,0,241,0,241,241,241,241,241,241,241,241,241,241,241,241,0,241,0,253,253,253,253,253,253,253,253,253,253,253,253,253,253,253,253,253,253,253,253,253,253,253,253,253,253,253,253,253,253,253,253,253,253,253,253,253,253,253,253,253,253,0,10,10,10,10,0,81,81,81,81,0,81,81,81,81,105,0,105,105,105,0,105,105,0,81,105,0,81,0,105,105,105,165,0,0,0,133,0,105,133,0,105,105,105,0,105,0,0,0,0,0,41,41,41,0,0,0,105,105,105,105,105,105,105,105,0,0,0,0,0,0,0,0,0,0,0,0,0,0,0,0,0,0,0
0,0,0,0,0,0,0,0,0,0,0,0,0,0,0,0,0,0,0,0,0,0,0,0,0,0,0,0,0,0,0,0,0,174,174,0,180,0,0,168,168,0,168,168,168,0,0,0,180,180,180,180,180,180,180,180,180,180,180,180,0,0,0,0,0,0,0,168,168,168,241,0,198,0,220,220,220,220,220,220,220,220,230,230,230,230,230,230,230,230,230,0,0,0,0,0,0,0,10,10,10,10,10,10,10,10,10,0,0,0,0,25,41,0,0,60,60,0,60,60,60,0,60,60,81,0,60,60,60,60,60,0,81,0,0,0,0,0,50,0,50,50,50,50,0,0,50,50,50,0,0,0,0,0,0,0,0,0,0,0,0,0,0,0,0,0,0,0,41,41,41,41,41,41,41,0,0,0,0,0,0,0,241,241,133,0,0,133,133,165,0,133,133,0,0,0,0,133,0,10,0,0,0,0,0,0,0,0,0,0,0,0,0,0,0,0,0,220,0,0,241,0,230,0,241,241,241,241,241,241,241,241,241,241,241,241,241,241,241,0,0,253,0,241,241,241,241,241,241,241,241,241,241,241,241,0,0,241,0,241,241,241,241,241,241,241,241,241,241,241,241,0,241,0,253,253,253,253,253,253,253,253,253,253,253,253,253,253,253,253,253,253,253,253,253,253,253,253,253,253,253,253,253,253,253,253,253,253,253,253,253,253,0,253,253,253,253,10,10,10,10,0,81,81,81,0,81,81,81,81,81,105,105,0,105,105,105,105,105,0,81,81,81,0,0,105,105,105,105,165,0,0,133,133,133,0,0,133,0,105,105,133,0,0,0,0,60,60,0,41,0,0,168,168,105,105,105,105,105,105,105,0,0,0,0,0,0,0,0,0,0,0,0,0,0,0,0,0,0,0
0,0,0,0,0,0,0,0,0,0,0,0,0,0,0,0,0,0,0,0,0,0,0,0,0,0,0,0,0,0,0,0,0,174,0,202,202,0,0,0,0,0,0,0,227,227,0,0,0,180,180,180,180,180,180,180,187,187,0,180,0,0,0,0,0,0,0,168,168,168,0,0,220,198,220,220,220,220,0,220,220,0,230,230,230,230,230,230,230,230,230,165,0,0,0,0,0,0,0,10,10,10,10,10,10,10,10,0,0,0,0,0,0,0,0,60,60,81,81,81,81,81,81,0,60,60,60,60,60,60,60,81,81,0,0,0,0,50,50,0,0,50,50,50,0,0,50,50,50,50,0,0,227,227,227,0,0,0,0,0,0,0,0,0,0,0,0,0,0,0,41,41,41,41,41,0,0,25,0,0,0,0,241,241,133,0,0,133,133,165,0,133,165,0,0,0,0,60,0,41,0,0,0,10,0,0,0,0,0,0,0,0,0,0,0,0,0,220,220,0,230,0,230,230,230,241,241,241,241,241,241,241,241,241,241,241,241,241,241,0,0,253,0,0,241,241,241,241,241,241,241,241,241,241,241,0,0,241,0,253,0,0,241,241,241,241,241,241,241,241,241,241,253,253,253,253,253,253,253,253,253,253,253,253,253,253,253,253,253,253,253,253,253,253,253,253,253,253,253,253,253,253,253,253,253,253,253,253,253,0,241,241,241,241,241,253,0,10,10,10,10,0,81,81,81,0,0,0,81,81,105,105,105,105,105,105,105,105,105,105,105,105,0,81,0,105,105,105,105,105,0,0,133,133,133,0,0,133,0,105,133,0,0,0,0,0,0,0,41,41,0,0,0,105,105,133,0,105,133,0,105,0,0,0,0,0,0,0,0,0,0,0,0,0,0,0,0,0,0,0
0,0,0,0,0,0,0,0,0,0,0,0,0,0,0,0,0,0,0,0,0,0,0,0,0,0,0,0,0,0,0,0,0,0,0,202,202,202,0,0,0,0,0,227,227,227,0,0,0,0,180,180,180,180,180,180,187,187,0,187,0,0,0,0,25,25,174,0,168,0,0,0,0,0,0,0,220,0,0,0,230,230,230,230,230,230,230,230,230,230,230,0,0,0,0,0,0,10,10,10,10,10,25,81,10,0,0,0,0,0,0,0,41,41,0,60,60,60,60,60,60,60,60,60,81,0,60,60,60,60,60,241,0,0,0,244,120,0,50,0,0,50,50,50,50,50,0,50,50,120,0,0,227,227,227,0,0,0,0,0,0,0,0,0,0,0,0,0,0,0,41,41,0,25,25,25,25,0,0,0,0,0,0,0,133,0,0,165,165,0,133,133,165,0,0,0,0,0,0,0,0,0,0,0,0,0,0,0,0,0,0,0,220,220,220,0,0,0,220,0,230,230,230,0,230,241,241,241,241,241,241,241,241,241,241,241,241,241,241,253,253,253,0,241,241,241,241,241,241,241,241,241,241,241,241,241,241,241,0,253,253,0,241,241,241,241,241,241,241,241,241,241,253,253,253,253,253,253,253,253,253,253,253,253,253,253,253,253,253,253,253,253,253,253,253,253,253,253,253,253,253,253,253,253,253,253,253,253,0,241,241,241,241,241,241,253,253,10,10,10,10,0,81,81,81,0,0,0,81,81,81,105,105,105,105,0,81,105,105,0,81,81,81,0,81,105,105,105,105,0,0,105,133,0,105,0,105,0,105,105,105,0,0,133,133,133,133,0,0,0,0,0,105,0,105,105,105,105,105,105,0,0,0,0,0,0,0,0,0,0,0,0,0,0,0,0,0,0,0,0
0,0,0,0,0,0,0,0,0,0,0,0,0,0,0,0,0,0,0,0,0,0,0,0,0,0,0,0,0,0,0,0,0,0,202,202,202,202,0,0,0,0,0,0,227,227,0,0,0,0,180,180,180,180,180,187,187,187,187,187,187,187,0,0,0,25,174,0,0,0,0,0,0,0,0,0,220,0,0,230,230,230,230,230,230,230,230,230,230,230,230,230,0,0,0,0,0,10,10,10,10,10,10,81,81,0,0,0,0,0,0,0,0,0,0,0,60,60,60,60,0,60,60,60,60,60,60,0,60,60,60,244,244,0,165,0,120,0,0,0,0,50,50,50,50,50,50,120,0,50,0,0,227,227,227,227,0,0,0,0,0,0,120,0,0,0,0,0,0,0,0,0,0,25,25,25,0,0,0,0,0,0,0,0,165,165,0,165,165,165,165,165,165,0,0,0,0,0,0,0,0,0,0,10,0,0,0,0,0,0,0,220,220,220,220,220,0,0,0,0,0,0,241,0,0,0,241,241,0,241,241,241,241,241,241,241,241,241,241,253,0,253,0,241,241,241,241,241,241,241,241,241,241,241,241,241,241,241,0,0,230,241,241,241,241,241,241,241,241,241,241,241,253,253,253,253,253,253,253,253,253,253,253,253,253,253,253,253,253,253,253,253,253,253,253,253,253,253,253,253,253,253,253,253,253,253,253,253,0,241,241,241,241,241,241,253,253,253,253,10,10,0,81,81,0,105,0,0,81,81,81,105,105,105,105,105,105,0,81,81,81,81,81,81,81,81,105,105,105,105,105,0,105,133,133,0,0,105,105,105,105,0,105,105,0,133,133,133,0,0,0,0,0,0,105,105,105,133,133,0,0,0,0,0,0,0,0,0,0,0,0,0,0,0,0,0,0,0,0,0
0,0,0,0,0,0,0,0,0,0,0,0,0,0,0,0,0,0,0,0,0,0,0,0,0,0,0,0,0,0,0,0,0,0,0,202,202,202,0,0,0,0,0,227,227,0,0,0,0,0,0,180,180,0,180,187,187,187,187,187,0,187,0,0,25,25,25,0,0,168,0,0,0,0,220,0,230,230,230,230,230,230,230,230,230,230,230,0,0,230,230,230,230,0,0,0,0,0,10,10,10,10,0,0,0,241,241,241,241,0,0,0,0,0,0,0,0,0,0,0,0,60,60,60,60,60,60,60,60,60,60,60,60,0,165,211,0,120,165,0,0,50,50,50,50,50,50,50,50,50,0,0,227,0,0,241,0,0,0,0,0,0,0,0,0,0,0,0,0,0,0,0,0,25,25,0,0,0,0,0,0,0,0,165,0,0,165,165,165,165,165,165,0,0,0,0,0,0,0,0,0,10,10,10,0,0,0,0,220,0,0,220,220,220,220,220,0,0,0,0,0,241,241,0,0,0,241,241,241,241,241,241,241,241,241,241,241,241,241,0,253,253,0,241,241,241,241,241,241,241,241,241,241,241,241,241,0,0,0,230,230,241,241,241,241,241,241,241,241,241,241,253,253,253,253,253,253,253,253,253,253,253,253,253,253,253,253,253,253,253,253,253,253,253,253,253,253,253,253,253,253,253,253,253,253,253,253,253,0,241,241,241,241,241,241,253,253,253,253,10,10,0,81,81,81,0,0,105,0,81,105,105,105,105,105,105,0,81,0,81,0,81,81,81,81,81,0,105,105,105,105,105,105,105,133,0,105,105,105,105,105,105,105,105,211,133,133,133,0,0,0,0,0,0,0,105,0,133,133,0,105,0,0,0,0,0,0,0,0,0,0,0,0,0,0,0,0,0,0,0
0,0,0,0,0,0,0,0,0,0,0,0,0,0,0,0,0,0,0,0,0,0,0,0,0,0,0,0,0,0,0,0,0,0,202,202,202,202,0,0,0,0,0,0,0,0,0,0,0,0,0,180,0,0,0,187,187,187,0,187,0,187,0,180,187,0,0,0,187,0,0,0,0,210,210,151,0,0,230,230,230,230,230,230,0,230,230,0,0,230,230,230,230,230,0,0,0,0,0,10,10,10,0,81,241,241,241,241,0,0,0,0,0,0,0,244,244,25,0,0,0,60,60,60,0,0,230,133,133,133,0,133,165,165,0,0,165,0,0,0,0,0,0,0,0,0,244,244,244,0,0,0,0,0,0,227,0,0,0,0,0,0,0,0,0,0,0,0,168,0,0,0,25,25,0,0,0,0,0,0,0,0,0,0,165,165,165,165,165,165,165,165,165,0,0,0,0,0,0,0,0,10,10,10,10,0,0,0,0,0,0,0,220,220,220,220,220,0,0,0,0,241,0,0,0,0,241,241,241,241,241,241,241,241,241,241,241,241,241,0,253,253,0,241,241,241,241,241,241,241,241,241,241,241,0,0,0,0,0,230,253,253,0,241,0,241,241,241,241,241,241,0,241,241,253,253,253,253,253,0,253,253,253,253,253,253,253,253,253,253,253,253,253,253,253,253,253,253,253,253,253,253,253,253,253,253,253,0,241,241,241,241,241,0,241,253,253,253,253,253,10,0,81,81,105,0,0,105,0,105,105,105,0,105,105,0,81,0,81,81,81,81,81,81,81,81,81,81,81,105,105,105,105,105,105,105,105,105,105,105,0,105,105,105,105,0,133,0,0,0,0,0,0,0,105,105,133,133,0,105,0,0,0,0,0,0,0,0,0,0,0,0,0,0,0,0,0,0,0,0
0,0,0,0,0,0,0,0,0,0,0,0,0,0,0,0,0,0,0,0,0,0,0,0,0,0,0,0,0,0,0,0,0,0,0,202,202,202,0,0,0,0,0,0,0,0,0,0,174,0,0,0,0,194,0,0,187,187,0,187,0,187,187,187,187,187,0,187,187,187,0,0,0,210,0,0,230,230,230,230,230,230,230,230,0,230,0,0,0,230,230,230,230,230,230,0,230,230,230,253,253,253,0,241,0,241,241,241,0,0,0,198,0,0,0,0,244,0,0,0,0,0,25,0,0,133,133,133,133,204,250,0,0,165,0,0,0,81,0,0,0,0,0,0,0,0,0,0,0,0,0,211,0,0,0,227,0,0,227,0,0,0,187,168,168,0,168,168,168,168,0,0,25,25,0,202,0,202,0,0,0,0,0,165,165,0,204,0,165,165,165,165,165,0,0,0,0,0,0,0,0,10,10,10,10,0,0,0,230,0,220,220,220,220,220,220,220,0,0,0,0,241,241,0,230,0,241,241,241,241,241,241,241,241,241,241,241,241,241,253,0,0,241,241,241,241,241,241,241,241,241,241,241,241,0,253,0,0,0,230,253,253,0,241,0,0,241,241,241,241,241,241,241,241,241,253,253,253,253,0,0,10,10,0,253,0,253,253,253,0,0,253,253,253,253,253,253,253,253,253,253,253,253,253,253,0,241,241,241,241,241,241,241,241,253,253,253,253,253,253,0,0,81,81,105,0,0,0,105,105,0,105,0,105,105,0,81,81,81,81,81,81,81,81,81,0,0,81,81,81,81,81,105,105,105,105,105,105,105,105,105,105,105,105,133,133,133,0,0,0,0,0,133,133,0,133,133,133,133,0,0,0,0,0,0,0,0,0,0,0,0,0,0,0,0,0,0,0,0,0
0,0,0,0,0,0,0,0,0,0,0,0,0,0,0,0,0,0,0,0,0,0,0,0,0,0,0,0,0,0,0,0,0,0,230,0,0,0,0,0,0,0,0,0,0,0,0,0,0,0,0,0,194,0,194,194,194,0,187,187,187,187,187,187,187,187,187,187,187,0,220,220,220,0,0,0,230,230,230,230,230,230,230,230,0,230,230,0,230,230,230,230,230,230,230,230,230,230,230,253,253,253,253,241,0,244,0,0,0,0,0,0,0,0,0,0,0,0,41,41,0,0,41,41,0,133,250,133,250,0,0,0,0,0,0,0,0,25,25,25,0,0,0,0,0,0,0,0,0,0,0,0,0,0,0,0,0,227,227,227,0,0,0,168,168,168,0,168,0,0,0,41,0,0,0,0,0,0,0,0,0,0,204,250,0,204,0,165,165,165,165,165,0,0,0,0,0,0,0,0,253,0,0,10,0,0,0,0,220,220,220,220,220,220,220,220,220,220,220,0,0,0,230,230,0,230,241,241,241,241,241,241,241,241,241,241,241,241,241,253,0,253,0,241,241,241,241,241,241,241,241,241,241,0,0,0,253,0,0,0,253,253,0,241,241,0,241,241,241,241,241,241,241,241,241,253,253,253,253,10,10,10,10,10,10,10,0,0,0,10,0,253,10,0,253,253,253,253,253,253,253,253,253,10,0,0,241,241,241,241,241,241,241,241,253,253,253,253,253,0,253,0,81,81,0,0,0,0,0,105,105,105,0,0,0,81,81,81,81,81,81,81,81,81,81,81,81,81,81,81,105,105,105,105,105,105,105,105,105,105,105,105,105,105,0,133,133,0,0,0,0,0,0,133,0,133,133,133,133,133,0,0,0,0,0,0,0,0,0,0,0,0,0,0,0,0,0,0,0,0
0,0,0,0,0,0,0,0,0,0,0,0,0,0,0,0,0,0,0,0,0,0,0,0,0,0,0,0,0,0,0,0,0,0,202,202,202,202,0,0,0,0,0,0,0,0,0,0,0,168,0,0,194,0,194,180,187,187,187,187,187,187,187,187,187,187,187,187,220,220,220,220,220,0,0,0,230,230,230,230,230,230,230,230,230,230,230,230,230,230,230,230,230,230,241,0,230,230,230,253,253,0,0,253,0,0,0,0,0,0,0,0,0,0,0,0,0,0,0,0,0,0,0,0,194,105,133,133,133,133,0,0,187,0,41,0,25,25,25,25,0,0,0,0,60,0,0,0,0,0,0,0,0,0,0,0,0,0,0,0,180,180,180,202,202,0,0,0,0,0,0,0,0,241,0,0,0,0,0,0,0,0,250,250,0,204,204,0,165,165,165,0,0,0,0,0,0,0,0,0,0,230,230,230,0,220,0,220,220,220,220,220,0,220,0,0,220,220,220,0,0,230,241,0,230,230,241,241,241,241,241,241,241,241,241,241,241,241,241,241,241,253,0,241,241,241,241,241,241,241,241,241,241,0,0,0,0,0,0,0,253,253,0,241,241,253,0,241,241,241,241,241,0,0,241,241,253,253,253,10,10,10,10,10,10,10,0,0,0,10,10,10,10,10,10,10,10,10,10,0,253,10,10,10,10,0,0,241,241,241,241,241,241,241,253,253,253,10,0,10,10,0,81,81,105,0,0,0,81,0,81,105,0,0,105,0,81,81,81,81,81,81,81,81,81,81,81,81,81,81,81,81,105,105,105,105,105,105,105,105,105,105,105,105,0,133,0,0,0,0,0,0,0,0,0,133,0,133,133,133,0,0,0,0,0,0,0,0,0,0,0,0,0,0,0,0,0,0,0,0
0,0,0,0,0,0,0,0,0,0,0,0,0,0,0,0,0,0,0,0,0,0,0,0,0,0,0,0,0,0,0,0,0,0,0,168,202,202,0,0,0,0,0,0,0,0,0,0,168,168,0,0,194,0,0,180,180,187,187,187,187,187,187,187,187,187,220,220,220,220,220,220,220,0,0,230,230,230,230,230,230,230,230,230,230,230,230,230,230,230,230,230,230,230,230,0,230,230,230,230,253,0,0,0,0,0,0,0,0,0,0,0,0,0,0,0,0,0,0,0,0,0,0,0,0,0,250,250,0,50,50,0,211,0,81,0,0,0,81,0,0,0,0,0,0,0,0,0,0,0,0,0,0,0,0,0,0,0,187,187,0,0,202,202,202,202,202,0,0,0,0,0,0,75,75,0,0,0,0,0,0,0,250,250,250,0,0,165,165,165,0,0,0,0,0,0,0,0,0,0,0,0,0,0,0,0,0,220,230,0,220,0,0,210,210,0,220,220,220,0,0,0,230,230,230,230,241,241,241,0,241,241,241,241,241,241,241,241,241,241,241,0,241,241,241,241,241,241,241,241,241,241,241,241,10,0,253,253,253,253,253,253,0,0,0,253,0,241,241,241,241,241,241,241,241,253,253,0,253,10,10,10,10,10,10,0,0,253,0,0,10,10,10,0,253,253,253,10,0,253,253,10,10,10,10,0,0,241,0,241,241,241,241,241,253,253,253,253,253,0,105,0,81,81,105,105,0,105,105,105,105,105,105,0,0,81,81,81,81,81,81,81,81,81,81,81,81,81,81,81,81,81,81,81,0,81,81,105,105,105,105,105,105,105,105,133,0,0,0,0,0,0,0,133,0,0,0,133,133,133,0,0,0,0,0,0,0,0,0,0,0,0,0,0,0,0,0,0,0,0
0,0,0,0,0,0,0,0,0,0,0,0,0,0,0,0,0,0,0,0,0,0,0,0,0,0,0,0,0,0,0,0,0,168,168,168,168,180,0,174,174,0,0,0,0,0,0,0,168,168,0,0,194,194,0,0,180,180,187,187,187,187,187,187,187,187,187,220,220,220,220,220,220,0,230,0,230,230,230,230,230,230,230,230,230,230,230,230,230,230,230,230,230,0,230,230,230,230,230,230,253,230,0,253,0,0,0,0,0,0,0,0,0,0,0,0,168,194,194,194,194,194,0,250,250,250,250,0,0,0,244,0,0,0,120,0,0,81,81,0,0,0,0,60,0,0,41,0,41,0,0,0,0,0,0,0,0,0,60,0,202,0,202,202,202,0,202,0,0,0,0,0,75,244,0,0,0,0,0,0,0,0,250,250,250,250,0,0,165,165,227,0,0,0,0,227,227,0,0,0,0,0,0,0,0,0,0,0,0,0,0,0,0,210,210,210,0,0,220,0,0,0,230,230,230,241,241,241,241,241,241,241,241,241,241,241,241,241,241,241,0,241,241,241,241,241,241,241,241,241,241,241,241,0,253,0,0,253,0,0,241,253,0,241,253,0,241,0,241,241,241,241,241,241,241,253,253,0,253,10,10,0,10,10,10,10,0,253,253,253,10,10,0,253,10,10,10,0,253,253,253,10,10,10,25,0,0,0,253,253,253,253,253,253,253,253,253,10,0,105,105,105,0,81,105,105,0,81,81,81,81,105,0,81,81,81,81,81,81,81,81,81,81,81,81,81,81,81,81,81,81,81,81,81,0,81,81,105,105,105,105,105,105,105,105,105,0,81,0,0,0,0,133,133,0,0,0,133,133,133,0,0,0,0,0,0,0,0,0,0,0,0,0,0,0,0,0,0,0,0
0,0,0,0,0,0,0,0,0,0,0,0,0,0,0,0,0,0,0,0,0,0,0,0,0,0,0,0,0,0,0,0,0,168,168,168,168,168,168,174,174,0,0,0,0,0,0,0,0,168,0,0,0,180,180,180,180,180,187,187,187,187,187,187,187,187,187,220,220,220,220,220,0,0,230,230,230,230,230,230,230,230,230,230,230,230,230,230,230,230,230,230,230,230,230,230,230,230,230,230,230,230,253,253,0,0,0,0,0,0,0,0,0,0,0,0,0,194,0,187,187,187,0,187,0,187,187,187,50,50,50,0,75,0,0,0,0,0,0,0,0,0,81,0,10,0,41,0,0,0,0,0,0,0,0,0,0,0,0,0,0,202,202,202,202,202,202,0,0,0,0,0,241,241,241,0,0,0,0,0,0,0,250,250,0,204,204,250,75,75,227,227,0,227,227,0,0,0,0,0,0,0,0,0,0,0,0,0,0,0,0,0,0,0,210,0,0,0,0,0,0,0,0,230,230,230,241,241,241,241,0,241,241,241,0,241,241,241,241,241,241,0,241,241,241,241,241,241,241,241,241,241,241,241,0,0,0,0,0,0,241,253,253,253,253,253,253,253,253,0,241,241,241,241,241,241,241,0,253,10,10,0,10,241,10,10,0,253,253,253,253,253,253,0,10,10,10,10,0,10,10,25,0,10,10,10,0,0,253,253,253,253,253,253,253,253,0,81,105,105,105,105,105,105,105,105,0,81,0,81,81,0,81,81,81,81,81,81,81,81,81,81,81,81,81,81,81,81,81,81,81,81,81,81,81,81,81,81,105,105,105,0,105,105,105,105,0,0,0,0,0,133,133,0,0,0,105,133,133,133,0,0,0,0,0,0,0,0,0,0,0,0,0,0,0,0,0,0,0,0
0,0,0,0,0,0,0,0,0,0,0,0,0,0,0,0,0,0,0,0,0,0,0,0,0,0,0,0,0,0,0,0,0,168,0,168,168,168,168,168,174,0,0,0,0,0,168,0,0,168,0,0,180,187,0,180,180,187,187,187,187,187,187,187,187,187,187,220,220,220,220,220,0,230,0,230,230,230,230,230,230,230,230,230,230,230,230,230,230,230,230,230,230,230,230,230,230,230,230,230,230,230,253,253,0,0,0,0,0,0,194,194,220,194,194,220,0,0,0,0,187,187,187,187,187,187,187,194,105,187,0,0,0,0,0,0,0,0,0,0,0,25,25,25,25,0,41,0,0,0,0,0,0,0,0,0,0,250,250,0,250,250,0,202,202,202,253,0,0,0,0,0,0,244,244,244,0,0,0,0,0,0,250,250,250,250,75,75,244,151,227,0,227,0,0,0,151,227,0,0,0,0,0,0,0,0,0,0,0,0,0,0,0,210,0,210,0,0,0,0,0,0,0,0,230,230,230,0,241,241,241,241,241,253,0,241,241,241,241,241,0,0,241,241,241,241,241,241,241,241,241,241,241,0,10,0,0,0,0,241,241,253,253,253,253,253,253,253,253,0,253,0,241,0,241,241,241,241,241,10,10,0,10,241,0,253,253,253,253,253,253,253,253,253,10,0,253,10,10,10,25,253,10,10,10,10,10,10,0,253,253,253,0,0,0,0,0,81,105,105,105,105,105,105,105,105,0,81,81,81,81,0,105,105,0,81,81,81,81,81,81,81,81,81,81,81,81,81,81,81,81,81,81,81,81,81,81,81,133,133,0,105,105,0,105,133,0,0,0,0,0,133,133,133,0,0,105,133,133,133,0,0,0,0,0,0,0,0,0,0,0,0,0,0,0,0,0,0,0,0
0,0,0,0,0,0,0,0,0,0,0,0,0,0,0,0,0,0,0,0,0,0,0,0,0,0,0,0,0,0,0,0,0,168,168,168,168,168,168,168,168,0,0,0,0,0,0,0,168,174,0,0,180,180,180,180,180,187,187,187,187,187,187,187,187,187,187,220,220,220,220,220,0,230,230,230,230,230,230,230,230,230,230,230,230,230,230,230,230,230,230,230,241,241,0,0,230,230,230,230,0,230,230,0,0,0,0,0,0,202,0,0,220,194,0,174,0,194,194,194,194,0,187,194,0,187,0,0,198,198,198,198,0,0,0,227,0,0,0,0,0,25,25,25,25,0,0,0,0,0,0,0,0,0,0,0,0,0,0,250,250,250,250,250,202,202,202,0,151,151,151,0,151,244,0,244,244,244,0,0,0,0,0,250,250,75,250,0,0,151,151,0,0,0,0,0,151,227,0,0,0,0,0,0,0,0,0,0,0,0,0,0,210,210,210,210,210,0,0,0,0,0,0,0,0,230,230,241,241,241,253,253,253,253,0,241,241,241,241,241,0,0,241,241,241,241,241,241,241,241,241,241,241,253,253,253,0,0,241,241,241,241,253,253,253,253,253,253,253,0,0,241,241,241,241,241,241,0,241,241,0,253,253,253,0,253,10,0,253,0,253,253,253,253,253,10,10,0,253,253,10,10,10,10,10,10,0,253,253,253,0,253,0,0,0,0,0,81,105,105,105,105,105,105,105,105,0,105,0,81,105,0,0,0,81,81,81,81,81,81,81,81,81,81,81,81,81,81,81,81,81,81,81,81,81,81,81,81,81,81,81,105,105,0,105,105,105,0,0,0,0,133,133,133,0,0,105,105,133,133,0,0,0,0,0,0,0,0,0,0,0,0,0,0,0,0,187,0,0,0
0,0,0,0,0,0,0,0,0,0,0,0,0,0,0,0,0,0,0,0,0,0,0,0,0,0,0,0,0,0,0,0,0,168,168,168,168,168,168,168,168,168,0,0,0,0,0,168,168,0,180,180,180,187,0,180,180,187,187,187,187,187,187,187,187,187,187,220,220,220,220,220,0,0,230,230,230,230,230,230,230,230,230,230,230,230,230,230,230,230,230,230,241,241,241,241,0,230,230,0,0,230,230,0,0,210,0,0,0,0,0,0,168,194,194,168,0,0,0,0,0,187,0,194,0,0,0,198,198,198,0,0,227,227,227,0,0,0,0,0,0,0,0,25,0,0,0,0,0,0,0,0,0,0,0,0,0,0,0,0,0,250,250,0,0,0,0,187,151,151,151,151,151,151,0,0,244,244,0,0,0,244,0,250,250,0,0,0,0,0,0,0,0,0,0,0,75,0,0,0,0,0,0,0,0,0,0,0,220,0,0,0,0,210,0,0,0,0,0,0,0,0,0,0,0,0,220,220,241,0,241,241,241,253,0,241,253,253,253,0,253,253,0,241,241,241,241,241,241,241,241,241,241,0,253,253,253,0,253,253,0,241,253,253,253,253,253,253,253,0,253,0,241,241,241,241,241,241,253,0,241,241,253,253,253,253,253,253,253,253,253,253,253,253,253,10,10,10,10,10,25,0,10,25,25,25,0,10,10,0,0,0,0,0,0,0,0,81,105,105,105,105,105,105,105,105,0,0,105,105,105,105,105,105,0,81,81,81,81,81,81,81,81,81,81,81,81,81,81,81,81,81,81,0,81,81,81,81,81,81,81,81,105,105,105,105,105,0,133,0,133,133,133,133,0,105,105,133,133,0,0,0,0,0,0,0,0,0,0,0,0,0,0,0,0,0,187,0,0,0
